0.6054539,0.6148349,0.6060375,0.6002119,0.5852198,0.5878982,0.5813652,0.5712028,0.5910335,0.5657035,0.5794253,0.5509489,0.5235393,0.4711727,0.4398430,0.4048301,0.3651638,0.3247373,0.3105525,0.2768764,0.2664568,0.2570602,0.2623259,0.2387666,0.2073675,0.2017552,0.1968191,0.2040730,0.2134695,0.2350285,0.2118063,0.2131553,0.2222129,0.2295425,0.2153127,0.1960143,0.1820117,0.1777141,0.1642786,0.1622052,0.1607016,0.1610631,0.1834422,0.2257222,0.2560195,0.2685874,0.2740278,0.3021235,0.3487180,0.3408336,0.3593958,0.3782818,0.3677401,0.3891640,0.4038164,0.4110512,0.4065329,0.4374528,0.4730849,0.4896302,0.4980366,0.5082273,0.5041273,0.5417231,0.5629873,0.5628405,0.5611317,0.5709734,0.5711559,0.6055312,0.6414940,0.6253589,0.5954268,0.5934094,0.5686268,0.5705562,0.5492871,0.5344858,0.5229246,0.5095426,0.5247007,0.5088182,0.4949880,0.5118927,0.5410789,0.5596270,0.5675645,0.5669560,0.5304343,0.5172782,0.4953030,0.4725764,0.4462643,0.4554313,0.4750022,0.4965584,0.5301541,0.5592631,0.5910345,0.6004825,0.6019206,0.6010412,0.5981755,0.5925769,0.5842444,0.5772434,0.5821515,0.5905153,0.5990996,0.5757290,0.5554304,0.5587798,0.5540513,0.5370388,0.5494869,0.5489628,0.5425265,0.5174899,0.4875771,0.4874597,0.4757797,0.4598070,0.4508240,0.4795483,0.4914003,0.4814583,0.4692931,0.4467364,0.4431483,0.4039044,0.3928463,0.3692420,0.3695111,0.3474655,0.3349925,0.3101739,0.2887471,0.2735251,0.2430021,0.2536490,0.2346859,0.2501913,0.2416664,0.2636407,0.2765739,0.2860380,0.3024841,0.3345588,0.3239957,0.3532223,0.3536476,0.3692045,0.3880972,0.4113875,0.4312950,0.4140365,0.4106568,0.4286680,0.4470874,0.4800799,0.4918040,0.5401965,0.5850482,0.6256837,0.6260559,0.6497574,0.6652023,0.6821168,0.7045141,0.7065615,0.7075408,0.6868307,0.6851886,0.7085879,0.7313900,0.7730042,0.7719515,0.7829577,0.8058692,0.8158128,0.8484878,0.8236954,0.8054235,0.7870756,0.7765382,0.7555703,0.7371462,0.7224990,0.6947939,0.6941763,0.6766374,0.6746548,0.6703765,0.6860135,0.7043292,0.7329661,0.7169342,0.6695330,0.6480144,0.6246019,0.6160164,0.5855939,0.5465214,0.5423681,0.5611915,0.6065972,0.6218520,0.6485251,0.6437100,0.6877486,0.7048502,0.6981966,0.6699650,0.6497920,0.6455810,0.6581423,0.6712445,0.6828941,0.6714934,0.6801879,0.6657887,0.6398098,0.6395797,0.6312434,0.6317735,0.6195080,0.6276150,0.6158699,0.6050238,0.6110015,0.6164849,0.6185370,0.6098684,0.6064304,0.6211623,0.6327361,0.6384824,0.6389653,0.6599920,0.6616493,0.6665088,0.6501353,0.6481215,0.6580156,0.6633865,0.6872368,0.7287888,0.7418283,0.7541737,0.7578352
0.5749968,0.5804348,0.5680514,0.5742702,0.5782387,0.5481651,0.5437998,0.5294318,0.5530315,0.5476076,0.5546820,0.5501946,0.5292606,0.4833023,0.4489123,0.4021557,0.3469216,0.3220543,0.3240023,0.2872436,0.2711511,0.2380302,0.2279485,0.2204765,0.2052031,0.1856921,0.1955026,0.2220689,0.2251135,0.2326447,0.2026901,0.2169538,0.2246255,0.2301170,0.2123512,0.2108581,0.2127258,0.1962589,0.1778708,0.1701080,0.1527733,0.1472809,0.1897913,0.2138399,0.2179799,0.2285385,0.2590651,0.2821704,0.3185339,0.3244617,0.3487975,0.3578498,0.3763818,0.3774772,0.4001892,0.4086817,0.4049739,0.4265117,0.4520591,0.5025154,0.5091058,0.5167193,0.5238291,0.5455367,0.5632124,0.5493521,0.5525722,0.5826477,0.6049664,0.6171464,0.6389406,0.6315065,0.6352008,0.6200117,0.5937587,0.5939322,0.5734701,0.5415283,0.5111780,0.5135297,0.5097269,0.5103968,0.5060054,0.5040151,0.5251077,0.5075442,0.5269153,0.5322162,0.5115192,0.5087479,0.4861326,0.4828946,0.4756830,0.4584848,0.4462977,0.4877453,0.5443351,0.5535386,0.5657515,0.5818313,0.5901933,0.5642278,0.5623991,0.5663963,0.5864344,0.5677485,0.5941125,0.5914650,0.5805513,0.5565063,0.5720603,0.5629987,0.5504118,0.5493646,0.5521951,0.5687212,0.5534438,0.5313174,0.5167171,0.5132218,0.5082196,0.4858366,0.4699652,0.4687851,0.4597459,0.4352698,0.4324651,0.4144185,0.4021434,0.3920300,0.3781241,0.3774133,0.3735776,0.3395481,0.3260870,0.3086248,0.2913782,0.2664257,0.2427650,0.2186247,0.2286199,0.2424007,0.2538663,0.2758474,0.2694945,0.2942957,0.2934477,0.3260305,0.3168724,0.3426905,0.3617008,0.3729132,0.3987004,0.4001461,0.4280126,0.4337087,0.4335148,0.4611139,0.4621753,0.4675197,0.4952065,0.5205865,0.5706715,0.6232375,0.6327312,0.6409437,0.6507475,0.6821582,0.7213631,0.7030178,0.7024714,0.6900612,0.7027319,0.6977845,0.7237527,0.7662322,0.7743268,0.7769172,0.8247989,0.8515945,0.8576215,0.8306439,0.8073383,0.7856137,0.7679115,0.7393509,0.7186283,0.7156905,0.7029650,0.6654426,0.6615862,0.6871793,0.6697896,0.6717772,0.7000363,0.6992420,0.6989130,0.6601219,0.6459478,0.6288579,0.6278966,0.6007237,0.5810640,0.5693667,0.5588794,0.5970166,0.6267775,0.6517663,0.6419683,0.6716466,0.6948803,0.7056409,0.6686187,0.6563306,0.6582925,0.6387660,0.6528491,0.6713250,0.6904545,0.6882588,0.6516248,0.6227097,0.6119587,0.5952209,0.5964915,0.6027744,0.5969454,0.5754810,0.5853252,0.5909820,0.5991385,0.5841872,0.5836748,0.5751480,0.5767614,0.6097692,0.6084184,0.5945650,0.6160985,0.6265110,0.6375431,0.6187740,0.6002880,0.6040943,0.6149365,0.6778394,0.7165908,0.7238796,0.7403294,0.7507812
0.5974262,0.5910140,0.5574637,0.5516913,0.5741124,0.5486064,0.5380021,0.5327534,0.5351365,0.5225470,0.5298052,0.5214980,0.5143727,0.4960991,0.4489822,0.3885992,0.3570410,0.3406763,0.3127136,0.2688262,0.2477060,0.2274241,0.2132272,0.1880023,0.1965252,0.2075225,0.2264350,0.2433645,0.2298416,0.2190745,0.2056995,0.2033654,0.2144782,0.2139128,0.2151059,0.2304130,0.2086562,0.1846886,0.1796660,0.1831232,0.1833560,0.1845692,0.1910024,0.1845879,0.1990407,0.2081470,0.2415039,0.2634455,0.3011411,0.3149188,0.3342163,0.3547214,0.3605676,0.3692628,0.3894060,0.3856459,0.4040526,0.4284744,0.4439516,0.4976408,0.5163751,0.5050290,0.5389699,0.5646568,0.5557248,0.5663216,0.5586015,0.5944189,0.6210259,0.6201515,0.6193318,0.6357922,0.6493645,0.6257870,0.5901934,0.5828152,0.5614193,0.5286744,0.4990957,0.5067105,0.5024918,0.5074671,0.5373621,0.5339391,0.5045182,0.4799070,0.5040844,0.5159220,0.4932818,0.4898711,0.5164788,0.4847426,0.4645373,0.4681465,0.4642887,0.4821097,0.5126786,0.5201685,0.5200960,0.5410222,0.5485831,0.5419861,0.5510498,0.5596644,0.5794611,0.5675258,0.5628848,0.5751607,0.5532970,0.5383047,0.5464978,0.5402332,0.5556640,0.5786545,0.5674954,0.5725551,0.5608590,0.5435135,0.5220243,0.5150177,0.5192828,0.4834711,0.4750127,0.4384255,0.4282897,0.4168452,0.3936496,0.3919816,0.3714345,0.3721506,0.3798802,0.3657911,0.3514199,0.3430334,0.3179500,0.2850248,0.2521542,0.2445806,0.2353492,0.2196595,0.2434175,0.2377035,0.2482785,0.2750148,0.2711478,0.2805298,0.2832171,0.3114383,0.3223509,0.3491415,0.3722572,0.3630398,0.3853950,0.4014398,0.4171543,0.4363607,0.4516359,0.4546274,0.4536241,0.4619827,0.4972989,0.5186407,0.5698842,0.5945928,0.6248416,0.6475958,0.6666633,0.6780687,0.7033373,0.6925531,0.7110315,0.7157624,0.7324265,0.7236755,0.7161102,0.7548936,0.7962264,0.8031847,0.8527646,0.8638358,0.8584742,0.8410632,0.8261855,0.7992676,0.7795439,0.7574459,0.7427259,0.7173644,0.7044915,0.6742945,0.6712392,0.6839295,0.6816609,0.6832964,0.6862109,0.6905355,0.6771315,0.6620526,0.6295926,0.6147885,0.6273557,0.6328108,0.6022893,0.5882867,0.5816452,0.5978896,0.6252247,0.6474934,0.6602107,0.6714549,0.6926347,0.6996473,0.6757424,0.6572741,0.6400202,0.6578471,0.6475185,0.6655998,0.6707014,0.6603209,0.6293533,0.6043403,0.5846286,0.5946539,0.5689131,0.5621401,0.5654850,0.5491689,0.5528660,0.5698871,0.5782272,0.5719592,0.5701751,0.5615366,0.5767116,0.5718402,0.5387546,0.5406194,0.5623727,0.5941885,0.5748205,0.5744325,0.5853979,0.5949944,0.5989672,0.6687299,0.7029590,0.7152028,0.7216325,0.7254172
0.5716223,0.5875830,0.5715799,0.5660608,0.5706368,0.5578319,0.5266441,0.5214292,0.5394328,0.5141697,0.4935915,0.5158506,0.5268073,0.5010971,0.4663055,0.4129685,0.3905752,0.3625872,0.3116797,0.2794716,0.2539329,0.2496903,0.2226572,0.1897632,0.2087778,0.2153870,0.2306077,0.2281498,0.2288531,0.2058008,0.1974546,0.1845028,0.2013416,0.2099334,0.2071510,0.2132052,0.1935225,0.1676733,0.1539343,0.1682070,0.1780252,0.1707752,0.1720620,0.1598811,0.1537196,0.1635300,0.1912716,0.2310642,0.2568340,0.2781668,0.2952695,0.3124476,0.3370882,0.3569261,0.3708331,0.4016543,0.4132738,0.4146821,0.4102027,0.4521599,0.4977179,0.5203770,0.5323517,0.5745703,0.5561552,0.5727489,0.5812419,0.6047146,0.6256887,0.6309646,0.6470171,0.6502649,0.6540218,0.6284510,0.6100532,0.5936146,0.5626082,0.5334960,0.5148705,0.5025298,0.5137722,0.5377168,0.5361780,0.5230011,0.4959443,0.4616678,0.4679728,0.4816925,0.4621263,0.4895033,0.4933322,0.4836006,0.4697603,0.4636772,0.4648930,0.4790583,0.4915472,0.5017054,0.4976447,0.5167784,0.5108854,0.4938044,0.5127518,0.5350576,0.5298008,0.5269240,0.5378464,0.5388588,0.5295901,0.5086290,0.5052604,0.5379486,0.5444887,0.5643468,0.5708290,0.5672401,0.5503670,0.5561330,0.5356007,0.5481869,0.5292056,0.4918215,0.4682135,0.4455160,0.4245687,0.3980319,0.3909134,0.3749398,0.3622579,0.3706151,0.3537796,0.3557992,0.3102822,0.3035024,0.2938254,0.2772187,0.2646258,0.2575985,0.2474549,0.2269164,0.2530573,0.2730369,0.2675144,0.2904025,0.2866638,0.2745016,0.2974555,0.3156618,0.3384624,0.3520143,0.3563657,0.3671152,0.3746373,0.4127277,0.4302882,0.4426388,0.4709068,0.4796468,0.4827714,0.4899425,0.5135830,0.5312142,0.5465704,0.5741192,0.5990303,0.6275131,0.6338441,0.6499262,0.6779056,0.6855502,0.6915623,0.7027142,0.7223075,0.7231613,0.7385387,0.7711398,0.7955704,0.8291621,0.8506036,0.8529634,0.8624716,0.8549320,0.8263489,0.7890604,0.7757301,0.7848350,0.7503367,0.7210603,0.7068166,0.6897068,0.6855148,0.6773040,0.6825405,0.6877795,0.6678275,0.6819785,0.6662495,0.6523455,0.6194642,0.6080717,0.6182209,0.6119245,0.6145362,0.6060876,0.5898892,0.5766511,0.6082047,0.6136110,0.6365155,0.6635315,0.6818198,0.6630740,0.6634141,0.6381139,0.6322682,0.6470026,0.6601862,0.6695655,0.6408285,0.6292518,0.6092069,0.5755664,0.5735795,0.5809654,0.5537668,0.5368729,0.5264250,0.5338830,0.5162922,0.5312606,0.5519454,0.5814339,0.5714385,0.5598654,0.5618288,0.5348305,0.5118511,0.5101066,0.5274340,0.5357071,0.5272534,0.5370657,0.5491771,0.5603162,0.5845348,0.6359865,0.6755791,0.6955998,0.6827337,0.7036978
0.5784145,0.5793658,0.5712980,0.5818761,0.5694660,0.5581827,0.5466355,0.5447036,0.5266564,0.5026203,0.4994906,0.5316798,0.5241694,0.5066074,0.4696434,0.4338398,0.4133294,0.3862659,0.3314071,0.2867874,0.2488925,0.2621882,0.2332379,0.2224905,0.1917478,0.2117646,0.2466550,0.2409780,0.2149051,0.1849670,0.1662839,0.1654918,0.1626725,0.1757816,0.1612402,0.1663382,0.1820486,0.1874791,0.1553157,0.1763999,0.1771550,0.1736978,0.1605930,0.1508703,0.1482011,0.1616903,0.1729807,0.1891464,0.1924386,0.2296995,0.2499194,0.2898842,0.3257772,0.3437890,0.3484018,0.3776239,0.3803624,0.3994033,0.3934625,0.4081041,0.4524675,0.4745626,0.4950235,0.5478158,0.5583626,0.5506429,0.5829876,0.6172119,0.6406828,0.6507997,0.6428244,0.6346321,0.6331808,0.6099814,0.6047682,0.5782508,0.5537395,0.5273936,0.5230474,0.5364887,0.5404324,0.5609855,0.5417018,0.4963103,0.4752818,0.4485094,0.4674435,0.4553145,0.4661533,0.4779324,0.4723905,0.4818116,0.4603206,0.4698746,0.4570061,0.4749492,0.4867113,0.4596015,0.4621675,0.4743714,0.4672730,0.4607358,0.5035838,0.5298501,0.4973841,0.4885149,0.4996720,0.5110388,0.4888949,0.4804758,0.4784270,0.5139796,0.5160778,0.5489686,0.5494839,0.5612125,0.5594887,0.5567672,0.5662122,0.5458388,0.5180658,0.5092746,0.4687352,0.4527525,0.4359669,0.3994917,0.3803583,0.3527885,0.3553202,0.3522784,0.3558599,0.3385550,0.3176365,0.2927969,0.2966484,0.2809013,0.2535065,0.2615424,0.2664162,0.2485827,0.2625520,0.2795346,0.2840338,0.2786657,0.2819861,0.2739129,0.2729460,0.3137329,0.3247156,0.3482513,0.3413432,0.3456034,0.3774473,0.4115589,0.4407213,0.4553154,0.4692468,0.4675374,0.4975683,0.5051117,0.5256439,0.5437262,0.5373809,0.5484515,0.5612219,0.5990168,0.6265033,0.6380429,0.6527159,0.6701185,0.6794764,0.6750476,0.6862767,0.6919181,0.7222937,0.7653787,0.8208898,0.8321835,0.8456856,0.8609861,0.8641556,0.8481312,0.8121829,0.8122815,0.7919374,0.7876197,0.7589136,0.7249785,0.6989819,0.6861242,0.6871474,0.6703728,0.6678760,0.6789595,0.6737979,0.6604348,0.6387698,0.6098387,0.5761300,0.5732725,0.5820045,0.6075353,0.6093361,0.5758908,0.5793883,0.5692522,0.5940691,0.5993223,0.6094310,0.6164856,0.6257330,0.6452188,0.6388370,0.6373054,0.6231470,0.6385297,0.6449368,0.6325271,0.6379575,0.5978242,0.5875283,0.5804326,0.5650879,0.5632279,0.5473106,0.5358712,0.5225055,0.5053125,0.5211844,0.5299763,0.5474628,0.5717271,0.5749811,0.5722669,0.5743890,0.5341360,0.5041059,0.4988205,0.5136731,0.5022834,0.5058236,0.4986677,0.5014976,0.5103728,0.5612259,0.6248870,0.6516400,0.6809121,0.6676596,0.6642183
0.5904233,0.6009089,0.5932052,0.6094226,0.6009481,0.5496600,0.5269343,0.5274636,0.5259903,0.5044726,0.5149382,0.5311321,0.5248464,0.4974183,0.4698076,0.4407497,0.4064890,0.3700614,0.3095442,0.2801845,0.2648019,0.2671282,0.2522081,0.2329751,0.2086012,0.2280510,0.2249731,0.2299831,0.2035043,0.1950236,0.1577208,0.1607484,0.1472267,0.1414621,0.1562777,0.1441985,0.1658955,0.1717383,0.1372873,0.1551780,0.1417808,0.1509942,0.1316629,0.1119913,0.1400066,0.1574132,0.1680389,0.1781283,0.1730370,0.1969093,0.2218697,0.2665655,0.3006706,0.3376137,0.3444695,0.3701727,0.3794729,0.3932225,0.3723446,0.3894191,0.4396724,0.4555707,0.4638655,0.5011500,0.5225746,0.5395507,0.5695964,0.5893227,0.6184582,0.6406370,0.6334542,0.6346671,0.6226369,0.5887847,0.5908554,0.5941205,0.5612727,0.5419976,0.5516002,0.5591305,0.5759669,0.5577824,0.5371751,0.5124668,0.4779249,0.4553912,0.4665097,0.4516723,0.4590043,0.4776080,0.4706650,0.4628828,0.4619384,0.4706912,0.4644907,0.4585508,0.4478883,0.4373922,0.4530696,0.4405795,0.4599282,0.4677614,0.4823772,0.5068161,0.4985160,0.4984343,0.4997572,0.4924517,0.4902252,0.4718993,0.4566144,0.4947388,0.4961055,0.5186131,0.5345120,0.5612561,0.5569809,0.5397737,0.5333148,0.5280501,0.5302578,0.5034095,0.4484181,0.4347929,0.4354349,0.3988344,0.3764412,0.3450171,0.3437419,0.3439852,0.3551927,0.3177228,0.3122129,0.2871885,0.2930286,0.2909810,0.2772207,0.2521769,0.2328184,0.2339307,0.2537983,0.2685819,0.2629096,0.2475734,0.2571312,0.2458006,0.2705302,0.2919685,0.2983057,0.3270533,0.3391459,0.3539039,0.3806691,0.4119535,0.4480465,0.4666433,0.4763012,0.4762592,0.4961101,0.5132667,0.5229468,0.5158423,0.5216101,0.5212833,0.5610577,0.5791983,0.5845930,0.6114562,0.6407193,0.6709311,0.6964112,0.6918222,0.6998971,0.6933901,0.7334826,0.7709866,0.8176318,0.8222809,0.8389840,0.8305601,0.8406072,0.8231249,0.8229021,0.8032897,0.7847835,0.7759805,0.7429878,0.7104994,0.6814773,0.6618652,0.6571444,0.6479972,0.6530053,0.6287002,0.6128743,0.6245168,0.6213409,0.5889999,0.5734827,0.5488257,0.5369130,0.5619621,0.5714366,0.5564557,0.5676350,0.5762380,0.5862139,0.5939135,0.5891485,0.5732494,0.5998289,0.6201819,0.6310505,0.6270943,0.5977570,0.5991369,0.5956225,0.6031602,0.5894134,0.5623768,0.5623278,0.5617007,0.5638288,0.5459451,0.5339042,0.5225688,0.5230331,0.5047967,0.5280438,0.5304036,0.5383228,0.5474420,0.5587027,0.5734799,0.5593096,0.5494624,0.5113892,0.4824815,0.4823595,0.4910831,0.5021346,0.4919089,0.5000983,0.5202073,0.5635541,0.6089516,0.6352403,0.6578093,0.6735416,0.6593956
0.5881046,0.6201623,0.6229194,0.6112782,0.5762982,0.5488438,0.5156713,0.5092505,0.5213381,0.5360757,0.5128533,0.5186429,0.5052074,0.4956482,0.4534955,0.4211372,0.4042896,0.3627205,0.3073562,0.2820472,0.2646870,0.2803923,0.2685452,0.2591828,0.2406826,0.2493190,0.2140683,0.2090753,0.2089668,0.1930338,0.1710409,0.1525095,0.1639804,0.1601213,0.1304191,0.1366510,0.1412435,0.1233736,0.1098290,0.1202652,0.1148055,0.1414832,0.1323413,0.1085331,0.1310568,0.1496167,0.1531076,0.1586805,0.1705618,0.1670327,0.2020949,0.2607745,0.3027309,0.3396472,0.3588093,0.3758948,0.3500936,0.3619989,0.3763932,0.3827806,0.4292898,0.4421321,0.4480407,0.4663960,0.4999676,0.5333814,0.5575205,0.5762076,0.6000193,0.6008645,0.6079861,0.6037570,0.6014454,0.6124793,0.6100120,0.5834879,0.5518819,0.5304020,0.5550407,0.5654942,0.5796752,0.5566635,0.5407518,0.5219220,0.4759577,0.4508799,0.4549990,0.4375726,0.4687989,0.4675232,0.4820353,0.4851088,0.4682244,0.4716469,0.4613601,0.4406957,0.4178572,0.4280582,0.4520632,0.4527827,0.4703260,0.4630597,0.4863013,0.4960398,0.4642795,0.4766259,0.4782360,0.4908746,0.4714380,0.4518304,0.4404905,0.4704483,0.4717409,0.4932593,0.5092679,0.5361261,0.5646181,0.5506962,0.5340205,0.5210121,0.5166170,0.5000878,0.4471077,0.4277626,0.4287126,0.4043939,0.3914476,0.3627831,0.3488657,0.3314326,0.3135885,0.2965897,0.2822457,0.2747475,0.2932644,0.2700118,0.2572808,0.2284401,0.2006819,0.2125922,0.2407712,0.2330289,0.2332743,0.2316371,0.2342441,0.2378372,0.2596498,0.2705152,0.2921303,0.2951439,0.3210786,0.3615251,0.3894837,0.4140664,0.4499210,0.4436522,0.4434029,0.4590671,0.4732044,0.4895473,0.4867532,0.4914992,0.5125481,0.5150073,0.5451868,0.5671749,0.5827324,0.6001474,0.6211414,0.6473758,0.6868344,0.6794327,0.6883464,0.6974501,0.7084075,0.7239375,0.7626825,0.7911215,0.8088845,0.8154793,0.8345638,0.8086368,0.8221126,0.8054004,0.7877098,0.7454148,0.7141140,0.6983656,0.6684645,0.6467659,0.6371587,0.6260004,0.6188352,0.6016757,0.5862022,0.5925366,0.5967015,0.5572112,0.5472618,0.5241333,0.5253870,0.5363010,0.5535712,0.5531815,0.5713375,0.5598972,0.5844450,0.5677473,0.5492243,0.5455849,0.5478035,0.5732117,0.6087528,0.6066004,0.6049357,0.5816417,0.5807002,0.5992789,0.5660608,0.5471705,0.5249309,0.5348238,0.5452431,0.5329644,0.5143975,0.5119805,0.5116449,0.5178552,0.5389918,0.5303620,0.5259308,0.5336725,0.5442135,0.5386576,0.5453972,0.5348686,0.5039599,0.4760809,0.4831363,0.4659651,0.4790367,0.4799868,0.5027577,0.5366171,0.5748044,0.5926956,0.6039988,0.6444142,0.6615508,0.6432358
0.5938995,0.6101168,0.6301439,0.5974583,0.5687953,0.5588451,0.5378181,0.5202615,0.5121007,0.5270418,0.5166774,0.4910385,0.4676628,0.4658692,0.4465175,0.4171808,0.3855507,0.3393751,0.2985681,0.2813976,0.2695863,0.2902519,0.2772253,0.2894468,0.2742005,0.2356354,0.2344415,0.2023179,0.2138411,0.2093011,0.1936674,0.1741099,0.1882132,0.1597191,0.1231732,0.1093978,0.1010138,0.0930341,0.1040302,0.1050114,0.1235978,0.1300346,0.1409337,0.1345994,0.1337103,0.1298929,0.1356419,0.1413189,0.1688629,0.1811721,0.1966830,0.2521671,0.2903191,0.3232877,0.3382114,0.3631222,0.3426380,0.3516295,0.3654261,0.3880364,0.3885853,0.4029971,0.4221621,0.4460824,0.4812528,0.5295823,0.5322216,0.5434175,0.5693392,0.5991882,0.5986130,0.5946675,0.5812182,0.5927575,0.5896203,0.5698281,0.5469481,0.5403148,0.5646215,0.5668070,0.5601628,0.5477084,0.5187565,0.4941773,0.4585704,0.4401019,0.4431823,0.4442783,0.4819038,0.4923122,0.4917823,0.4956095,0.4702652,0.4702388,0.4723034,0.4776868,0.4563586,0.4701897,0.4751288,0.4686829,0.4873638,0.4886320,0.4819194,0.4666790,0.4650925,0.4544581,0.4634677,0.4734143,0.4622843,0.4532229,0.4314818,0.4479528,0.4578967,0.4636010,0.4919783,0.5271415,0.5395440,0.5475556,0.5382249,0.5143684,0.5068883,0.4866259,0.4460919,0.4309827,0.4152700,0.4159177,0.4023691,0.3879590,0.3720091,0.3382839,0.3081865,0.2995557,0.2831450,0.2666004,0.2549995,0.2398617,0.2339831,0.2209578,0.2108932,0.1945259,0.2143298,0.2264891,0.2232572,0.2215227,0.2120729,0.2375468,0.2425869,0.2617243,0.2939275,0.3054063,0.3517616,0.3751751,0.4067365,0.4226650,0.4460177,0.4532436,0.4410775,0.4577109,0.4707460,0.4683502,0.4727992,0.4692339,0.4925725,0.5057193,0.5320122,0.5680873,0.6109401,0.6270839,0.6321363,0.6392417,0.6855628,0.6734349,0.6532091,0.6593980,0.6896539,0.7013675,0.7383512,0.7617672,0.7857627,0.7940333,0.8228503,0.8325072,0.8241517,0.7993639,0.7522166,0.7380596,0.7212244,0.6846975,0.6653433,0.6566366,0.6610505,0.6209150,0.6205586,0.6045002,0.5755814,0.5816058,0.5502646,0.5307327,0.5185665,0.5002808,0.5161526,0.5179383,0.5423664,0.5307552,0.5612540,0.5372493,0.5340432,0.5439341,0.5311504,0.5315376,0.5467578,0.5657952,0.5925857,0.5820260,0.5947143,0.5855418,0.5831337,0.5694973,0.5236940,0.5075203,0.5120443,0.5143230,0.5320229,0.5320611,0.5101494,0.5053952,0.5113752,0.5250699,0.5211610,0.5263921,0.5380593,0.5422034,0.5469084,0.5364028,0.5411921,0.5266256,0.5056590,0.4757802,0.4893791,0.4997526,0.4949603,0.5161790,0.5319407,0.5520060,0.5696366,0.5993763,0.5864476,0.6064769,0.6179010,0.6380508
0.6017040,0.6186448,0.6080732,0.6014951,0.5798595,0.5579849,0.5500001,0.5215516,0.5215902,0.5077787,0.4994915,0.4948964,0.4740598,0.4698621,0.4450262,0.4087091,0.3605280,0.3289866,0.2885299,0.2806923,0.2940612,0.2904755,0.2857579,0.2716953,0.2567231,0.2508520,0.2502596,0.2316368,0.2085039,0.1854262,0.1771342,0.1896348,0.1784542,0.1772361,0.1491164,0.1347792,0.1302906,0.1060609,0.1039829,0.0910508,0.1023860,0.1391676,0.1404855,0.1396164,0.1377497,0.1317478,0.1275698,0.1460201,0.1646359,0.1737198,0.1838196,0.2200990,0.2561647,0.3020076,0.3225747,0.3281797,0.3415546,0.3456455,0.3472984,0.3812597,0.4003747,0.3949479,0.4046780,0.4442249,0.4703043,0.5011492,0.5328141,0.5432865,0.5484592,0.5715071,0.5803292,0.5817069,0.5877933,0.5706734,0.5797253,0.5495298,0.5078771,0.5180461,0.5256919,0.5330650,0.5470563,0.5235417,0.5054705,0.5028874,0.4803341,0.4583580,0.4452266,0.4547025,0.4826937,0.5062090,0.5095203,0.4846050,0.4765003,0.4862282,0.4919047,0.4914731,0.4610830,0.4581168,0.4724577,0.4587752,0.4529887,0.4640257,0.4750826,0.4650408,0.4528967,0.4331812,0.4528140,0.4687858,0.4661214,0.4485689,0.4229552,0.4345464,0.4422519,0.4692938,0.4637126,0.4872058,0.5018308,0.5085586,0.5080026,0.5036817,0.4995513,0.4748447,0.4595013,0.4445155,0.4341005,0.4070453,0.4081579,0.3828723,0.3565429,0.3349408,0.2958123,0.2796555,0.2630458,0.2459466,0.2305007,0.2158574,0.2055265,0.2080616,0.1922801,0.1731662,0.1873890,0.1768888,0.1785759,0.1935721,0.2016392,0.2431621,0.2454710,0.2572860,0.2938565,0.3152331,0.3512526,0.3713686,0.4064737,0.4031569,0.4213797,0.4234514,0.4221872,0.4489308,0.4929150,0.4821562,0.4738460,0.4822984,0.5109013,0.5346936,0.5433961,0.5779154,0.6079828,0.6060503,0.6377900,0.6351846,0.6519188,0.6474556,0.6412306,0.6562606,0.6890672,0.7077405,0.7469240,0.7604796,0.7719883,0.7903568,0.8407442,0.8561989,0.8201530,0.7870496,0.7443272,0.7171994,0.7077206,0.6661965,0.6787459,0.6627039,0.6646339,0.6166578,0.6238996,0.6050756,0.5730656,0.5669246,0.5488659,0.5148492,0.4947456,0.4966654,0.4974173,0.4887811,0.5126054,0.5184031,0.5343613,0.5163762,0.5152335,0.5077815,0.4945505,0.5057317,0.5508429,0.5730829,0.5896360,0.5765070,0.5792699,0.5913154,0.5661667,0.5330326,0.4913090,0.4894451,0.4847275,0.4830051,0.5108032,0.5124799,0.4817059,0.4856033,0.5046786,0.4966044,0.4920883,0.5112568,0.5258245,0.5496333,0.5421505,0.5305765,0.5244439,0.5190269,0.5255093,0.5151577,0.5141819,0.5240049,0.5244059,0.5076277,0.5196920,0.5595890,0.5789533,0.5663163,0.5609269,0.5883495,0.5912387,0.6221800
0.6092043,0.6027571,0.5841740,0.5849506,0.5853377,0.5866286,0.5564695,0.5382651,0.5482602,0.5078200,0.5089325,0.5077860,0.4760810,0.4732788,0.4654481,0.4273309,0.3623751,0.3430333,0.3155817,0.2933788,0.2796240,0.2827805,0.2668627,0.2557840,0.2374139,0.2455585,0.2393782,0.2152857,0.1863996,0.1673527,0.1596702,0.1812877,0.1784288,0.1627542,0.1443004,0.1302227,0.1490178,0.1267745,0.1235033,0.1012479,0.1062350,0.1336438,0.1230931,0.1297206,0.1561019,0.1352040,0.1290281,0.1632323,0.1741987,0.2053958,0.2142665,0.2363427,0.2482957,0.3014193,0.3195740,0.3407371,0.3710845,0.3697672,0.3783789,0.3897642,0.3965593,0.4129924,0.4182118,0.4401391,0.4517450,0.4854488,0.4968233,0.5077232,0.5427754,0.5532829,0.5651562,0.5737911,0.5924405,0.5822751,0.5695715,0.5211483,0.5006342,0.4786863,0.5064059,0.5223725,0.5429900,0.5220121,0.5144602,0.5087032,0.4914250,0.4874961,0.4658956,0.4631471,0.4868984,0.4717158,0.4801877,0.4756928,0.4810720,0.4878725,0.4966206,0.5030165,0.4757422,0.4708150,0.4508038,0.4536891,0.4542675,0.4485791,0.4721875,0.4544284,0.4586410,0.4343261,0.4387988,0.4707943,0.4816995,0.4788157,0.4447612,0.4296740,0.4664458,0.4632150,0.4667835,0.4921951,0.5099884,0.5340047,0.5072102,0.4738246,0.4754164,0.4598722,0.4439866,0.4395240,0.4367519,0.4158114,0.4126754,0.3923623,0.3724396,0.3415177,0.3045506,0.3029133,0.2712257,0.2301126,0.2080847,0.1788322,0.1919989,0.1725738,0.1760970,0.1786711,0.1698764,0.1667412,0.1817897,0.1824654,0.1757404,0.2089844,0.2344780,0.2808436,0.2744905,0.2871851,0.3298425,0.3639534,0.3826397,0.3844330,0.3981651,0.4152551,0.4258471,0.4340535,0.4851592,0.4799866,0.4637495,0.4902868,0.5144130,0.5507021,0.5520442,0.5781787,0.5783460,0.5966047,0.6251202,0.6146285,0.6349946,0.6394597,0.6408949,0.6495620,0.6755121,0.6981142,0.7224380,0.7538578,0.7822741,0.8262175,0.8586355,0.8524772,0.8299449,0.7986993,0.7477911,0.7053393,0.6968422,0.6773508,0.6942253,0.6823222,0.6773451,0.6250456,0.6127795,0.6248990,0.5979868,0.5682793,0.5619709,0.5437084,0.5156408,0.5241928,0.5055982,0.4787243,0.4858572,0.5019983,0.5169731,0.4895786,0.4800759,0.4859713,0.4867289,0.4989467,0.5367326,0.5526006,0.5699655,0.5674047,0.5719822,0.5842158,0.5611538,0.5329696,0.5031901,0.4965806,0.5063813,0.4997613,0.4862176,0.5039378,0.4898896,0.4940946,0.4989284,0.4853568,0.4840017,0.5247272,0.5239202,0.5428260,0.5172344,0.4942960,0.5085575,0.5128630,0.5325527,0.5305795,0.5463907,0.5367405,0.5331950,0.5207793,0.5306830,0.5534714,0.5629238,0.5531371,0.5706500,0.5955585,0.6016446,0.6124047
0.5820637,0.5884544,0.5745356,0.5944965,0.5872913,0.5669406,0.5575050,0.5755539,0.5603086,0.5129774,0.5106448,0.5204182,0.4880627,0.4703184,0.4738379,0.4402966,0.3855837,0.3512769,0.3150816,0.2969173,0.2842635,0.2746072,0.2620003,0.2675399,0.2442723,0.2489147,0.2300644,0.1984393,0.1696904,0.1525747,0.1359977,0.1520023,0.1725745,0.1522905,0.1439082,0.1202781,0.1283426,0.1312123,0.1219327,0.1017979,0.1077381,0.1378485,0.1253290,0.1392294,0.1520142,0.1751973,0.1671908,0.1883114,0.2001088,0.2088560,0.2282840,0.2563195,0.2596661,0.2997551,0.3038908,0.3235902,0.3469244,0.3852484,0.3933621,0.3783723,0.3826737,0.3943156,0.4259935,0.4457930,0.4338367,0.4655885,0.4640368,0.4968427,0.5322175,0.5209129,0.5262623,0.5467078,0.5570092,0.5441781,0.5420805,0.5029522,0.4869103,0.4621078,0.4932233,0.5188216,0.5270177,0.5137491,0.5340203,0.5368229,0.5199850,0.4815105,0.4820894,0.4532686,0.4619515,0.4800653,0.4676281,0.4710229,0.4884667,0.5030844,0.5099512,0.5027866,0.4676742,0.4489758,0.4391803,0.4393505,0.4584675,0.4619510,0.4644755,0.4530781,0.4507883,0.4340728,0.4264561,0.4350217,0.4791004,0.4666912,0.4580333,0.4622281,0.4858485,0.4846569,0.4571061,0.4945401,0.5140988,0.5050466,0.5007861,0.4876214,0.4733882,0.4587568,0.4310650,0.4291955,0.4267783,0.4182071,0.4030483,0.3826716,0.3504495,0.3241026,0.3055289,0.2906156,0.2626662,0.2137584,0.1855466,0.1947823,0.1920568,0.1688870,0.1605206,0.1849753,0.1896355,0.1853713,0.1629258,0.1481034,0.1689430,0.1811990,0.2123859,0.2703668,0.2823724,0.2863882,0.3082861,0.3430917,0.3589342,0.3634092,0.3779251,0.3991200,0.4331029,0.4507656,0.4598054,0.4645377,0.4841487,0.5240198,0.5413271,0.5696164,0.5573826,0.5815247,0.5694485,0.5938564,0.6206477,0.6189936,0.6182383,0.6360402,0.6610765,0.6778766,0.6673083,0.6952682,0.7324469,0.7686667,0.7894746,0.8313681,0.8687332,0.8571478,0.8445776,0.7838349,0.7662920,0.7341796,0.7092832,0.7074343,0.7039503,0.6837018,0.6890166,0.6517565,0.6344257,0.6106299,0.5964509,0.5721797,0.5689794,0.5520265,0.5362358,0.5196815,0.4840308,0.4760736,0.4668945,0.4780176,0.4963224,0.4736730,0.4725440,0.4774152,0.4902651,0.5178344,0.5443154,0.5508922,0.5702157,0.5589709,0.5502190,0.5597700,0.5299902,0.5296534,0.4994871,0.4843528,0.4980337,0.5037089,0.5101041,0.4874374,0.5063333,0.4926046,0.4814987,0.4756553,0.5127500,0.5297897,0.5299438,0.5272191,0.5101685,0.4998255,0.4939833,0.4892076,0.5213028,0.5244774,0.5427354,0.5500176,0.5359523,0.5359741,0.5319038,0.5326376,0.5622610,0.5426150,0.5488544,0.5795286,0.5938723,0.6139153
0.5703163,0.5658565,0.5721083,0.5886959,0.5919900,0.5880253,0.5671075,0.5798634,0.5616191,0.5408373,0.5091796,0.5162986,0.4953009,0.4751074,0.4733753,0.4282663,0.3814053,0.3545328,0.3330833,0.2945104,0.3024638,0.2910781,0.2760240,0.2767092,0.2638446,0.2321512,0.2085690,0.1915506,0.1808212,0.1529894,0.1236389,0.1263015,0.1403115,0.1214979,0.1126507,0.1082178,0.0945701,0.0941604,0.1051125,0.0914492,0.0979327,0.1424461,0.1448301,0.1354658,0.1437325,0.1501960,0.1481351,0.1588982,0.1933048,0.2022517,0.2404710,0.2560546,0.2612198,0.2966164,0.2864006,0.2925128,0.3055813,0.3505310,0.3756301,0.3792947,0.3881078,0.4053991,0.4264077,0.4308524,0.4487199,0.4609492,0.4806609,0.5078073,0.5254084,0.5216903,0.5221596,0.5245434,0.5360121,0.5057689,0.5200211,0.4795456,0.4726470,0.4591352,0.4842317,0.5201543,0.5434273,0.5255140,0.5398966,0.5488005,0.5181142,0.4976011,0.4827952,0.4665399,0.4777736,0.4650826,0.4526377,0.4571935,0.4802344,0.4753025,0.4786136,0.4992086,0.4776053,0.4465964,0.4250463,0.4535617,0.4469179,0.4653258,0.4709989,0.4473388,0.4186440,0.4065590,0.4269028,0.4533455,0.4669146,0.4836292,0.4696975,0.4645672,0.4754773,0.4815979,0.4662645,0.4823029,0.4989715,0.4910860,0.5006154,0.4945345,0.4664086,0.4548588,0.4351870,0.4475939,0.4473119,0.4433565,0.4034605,0.3884163,0.3601460,0.3235361,0.3069446,0.2726550,0.2550113,0.2338422,0.2237658,0.2057543,0.1882519,0.1813253,0.1571929,0.1758519,0.1899684,0.1996398,0.1747090,0.1546118,0.1590100,0.1815228,0.1828467,0.2209862,0.2635694,0.2658737,0.2843132,0.3097111,0.3380765,0.3489623,0.3561437,0.4015883,0.4613018,0.4720955,0.4765012,0.4852937,0.4834264,0.5371409,0.5523153,0.5667676,0.5632890,0.5674208,0.5620681,0.5852651,0.6155139,0.6461320,0.6312864,0.6455468,0.6525267,0.6737409,0.6967967,0.7333040,0.7626493,0.7996798,0.8314741,0.8579587,0.8970806,0.8708956,0.8593834,0.8105687,0.7753433,0.7631872,0.7469325,0.7140773,0.6901888,0.6930131,0.6858508,0.6827748,0.6500549,0.6207517,0.6039011,0.5973015,0.5809009,0.5672970,0.5508411,0.5130256,0.4745676,0.4766132,0.4689133,0.4697286,0.4826440,0.4829684,0.4951386,0.4830960,0.4892945,0.5361749,0.5541483,0.5556629,0.5683165,0.5710811,0.5520693,0.5389790,0.5096082,0.5032569,0.4858690,0.4882437,0.5029117,0.5054381,0.5286666,0.5079370,0.5057930,0.5212502,0.5032253,0.4824122,0.5223974,0.5431052,0.5289112,0.5263803,0.5076344,0.4915162,0.4892216,0.4868488,0.5139361,0.5148439,0.5171599,0.5296296,0.5496926,0.5686381,0.5403732,0.5342112,0.5640218,0.5462081,0.5521459,0.5754094,0.5803497,0.5796927
0.5374183,0.5409421,0.5453755,0.5734485,0.5727170,0.5855121,0.5743275,0.5631862,0.5407264,0.5261296,0.5273091,0.5195312,0.4985144,0.4720227,0.4580679,0.4321328,0.3810700,0.3298171,0.2932446,0.2775517,0.2763308,0.2806950,0.2882495,0.2878433,0.2768062,0.2600336,0.2282439,0.2083593,0.1782070,0.1302028,0.1078857,0.1030235,0.1123548,0.1199229,0.1003879,0.0864896,0.0896677,0.0641798,0.0807457,0.0775062,0.1167744,0.1410932,0.1559700,0.1595307,0.1609110,0.1469381,0.1291794,0.1308650,0.1617375,0.1978568,0.2136191,0.2328123,0.2540144,0.2673544,0.2834970,0.2910699,0.2945918,0.3374260,0.3621021,0.3792980,0.4058912,0.3933720,0.4027844,0.4198409,0.4378547,0.4699328,0.4805489,0.5046938,0.4941295,0.5101069,0.4945946,0.5129152,0.5129711,0.4781920,0.4753210,0.4764025,0.4504737,0.4631666,0.4658373,0.5151656,0.5254615,0.5270846,0.5297579,0.5426675,0.5305433,0.5347114,0.4980317,0.4960418,0.4802792,0.4482077,0.4505230,0.4487846,0.4921911,0.4848432,0.4733358,0.4789022,0.4582361,0.4632147,0.4607769,0.4667555,0.4493744,0.4603064,0.4567629,0.4373141,0.4304768,0.4077071,0.4426834,0.4627502,0.4675995,0.4678390,0.4782614,0.4653436,0.4706143,0.4881501,0.4778578,0.4618377,0.4713939,0.4948899,0.4930582,0.4893811,0.4857579,0.4745408,0.4507402,0.4479504,0.4593545,0.4401367,0.4112855,0.3973250,0.3622702,0.3187707,0.3034251,0.2838872,0.2553141,0.2339856,0.2347081,0.1971623,0.1807822,0.1980539,0.1734260,0.1775075,0.1892555,0.2018012,0.1767723,0.1542672,0.1740366,0.1684202,0.1733780,0.2049768,0.2425139,0.2497074,0.2719256,0.2974011,0.3209181,0.3245069,0.3438712,0.4145772,0.4651697,0.4788695,0.4927713,0.4974201,0.5103595,0.5306215,0.5479250,0.5509555,0.5528066,0.5770059,0.5661975,0.5930625,0.6266983,0.6352100,0.6324763,0.6362384,0.6287386,0.6613788,0.7171654,0.7519337,0.8097459,0.8203063,0.8736826,0.9146559,0.9363787,0.9069404,0.8899350,0.8577084,0.8016982,0.7656132,0.7543272,0.7116263,0.6966323,0.6800852,0.6796052,0.6861496,0.6624936,0.6475781,0.6110059,0.6030359,0.5879530,0.5748169,0.5548523,0.5191081,0.4830672,0.4773420,0.4759097,0.4948674,0.4881076,0.4821433,0.4671485,0.4715051,0.4806782,0.5150948,0.5620645,0.5582078,0.5574963,0.5467163,0.5311719,0.5137820,0.5026446,0.4815806,0.4735498,0.4929667,0.5107008,0.5167737,0.5380067,0.5204170,0.5114458,0.5173558,0.5168203,0.5034737,0.5526823,0.5756467,0.5758969,0.5519405,0.5326753,0.5359586,0.5173527,0.4906468,0.4899634,0.5014072,0.5127237,0.5337202,0.5463192,0.5546717,0.5703161,0.5461761,0.5612700,0.5635900,0.5503544,0.5593994,0.5548108,0.5553303
0.5391386,0.5347345,0.5521054,0.5366831,0.5420615,0.5447136,0.5370347,0.5235132,0.5157504,0.5021933,0.5038044,0.5080429,0.4967437,0.4847779,0.4635331,0.4159018,0.3623218,0.3115395,0.2864804,0.2809257,0.2734028,0.2867990,0.2779933,0.2718594,0.2561929,0.2529468,0.2086148,0.2069764,0.1563242,0.1109932,0.1030780,0.1018871,0.0915775,0.0916950,0.0769658,0.0802491,0.0633107,0.0474808,0.0513672,0.0682158,0.0830911,0.0975035,0.1380417,0.1502706,0.1355099,0.1212394,0.0989241,0.1285102,0.1457379,0.1949517,0.2178594,0.2350934,0.2592548,0.2675164,0.2913260,0.2869966,0.3087210,0.3213139,0.3594139,0.3778657,0.3822805,0.3967623,0.3938188,0.3939157,0.4043092,0.4454694,0.4613581,0.4782310,0.4761097,0.4958303,0.4914941,0.4894572,0.4939736,0.4721672,0.4667228,0.4701982,0.4754654,0.4756772,0.4734991,0.5057111,0.5362870,0.5394453,0.5362529,0.5477597,0.5389715,0.5188321,0.5157919,0.4922496,0.4726924,0.4421459,0.4372664,0.4515579,0.4735878,0.4958782,0.4897453,0.4773058,0.4735784,0.4610718,0.4699050,0.4781917,0.4517455,0.4622211,0.4436293,0.4548240,0.4426605,0.4098239,0.4137046,0.4469176,0.4764689,0.4772359,0.4711641,0.4860579,0.4778779,0.4904107,0.4747974,0.4764475,0.4700586,0.4810978,0.5022744,0.4914530,0.4833708,0.4981106,0.4865317,0.4882556,0.4795273,0.4422547,0.3872007,0.3972810,0.3762756,0.3449348,0.3303503,0.3137566,0.2655810,0.2375260,0.2223769,0.1977356,0.1929397,0.1978259,0.1859528,0.1863169,0.1855022,0.1717667,0.1875988,0.1620051,0.1579321,0.1564267,0.1693463,0.1799950,0.2137323,0.2381188,0.2528240,0.2731228,0.2930170,0.3170820,0.3526464,0.4032339,0.4528248,0.4955799,0.5025284,0.4932715,0.5211825,0.5319749,0.5536058,0.5517392,0.5478687,0.5694197,0.5775033,0.6025156,0.6031249,0.6112103,0.6157780,0.6193260,0.6424049,0.6797801,0.7302191,0.7545936,0.8029188,0.8482573,0.8836087,0.9270760,0.9682479,0.9585064,0.9207648,0.8815615,0.8369603,0.7896559,0.7668766,0.7204827,0.6942651,0.6713742,0.6731682,0.6781860,0.6723431,0.6537267,0.6329221,0.6130965,0.5814148,0.5942792,0.5532741,0.5167784,0.4969561,0.4848165,0.4625372,0.4897751,0.4767111,0.4709425,0.4534890,0.4472956,0.4561900,0.5027073,0.5358495,0.5403527,0.5467730,0.5431744,0.5402743,0.5365057,0.4988500,0.4908477,0.4879528,0.4975032,0.4980658,0.5316811,0.5360094,0.5358538,0.5356766,0.5287340,0.5231626,0.5301007,0.5750465,0.5736246,0.5775963,0.5861445,0.5705468,0.5576789,0.5362160,0.5198972,0.4831323,0.4859124,0.4940252,0.5074993,0.5310355,0.5509418,0.5528942,0.5351722,0.5551227,0.5626510,0.5623684,0.5593009,0.5665888,0.5744607
0.5234978,0.5487923,0.5442956,0.5499285,0.5460087,0.5366011,0.5171187,0.4924260,0.4771316,0.4795875,0.4907135,0.4941118,0.4855045,0.4732741,0.4349789,0.4002343,0.3480691,0.3142252,0.2844482,0.2767341,0.2749335,0.2718598,0.2682347,0.2628735,0.2391029,0.2392846,0.2087696,0.1773313,0.1575682,0.1419457,0.1170791,0.1138872,0.1055511,0.0940006,0.0801994,0.0768009,0.0772866,0.0774593,0.0706144,0.0859957,0.0805285,0.0997807,0.1299640,0.1545675,0.1460329,0.1353911,0.1112386,0.1179786,0.1683365,0.1947715,0.2007995,0.2292630,0.2702968,0.2834326,0.2963264,0.2886230,0.3126171,0.3435034,0.3480079,0.3603751,0.3597182,0.3727677,0.3551852,0.3856834,0.4207264,0.4315621,0.4448243,0.4387746,0.4442299,0.4700030,0.4763591,0.4930171,0.4856001,0.4769079,0.4828682,0.4867411,0.4910402,0.4875395,0.4971978,0.5147231,0.5295665,0.5196211,0.5169817,0.5348255,0.5333780,0.5071448,0.5060680,0.4986700,0.4714644,0.4410716,0.4515800,0.4621663,0.4707612,0.4957134,0.5101961,0.4911345,0.4760583,0.4624219,0.4633536,0.4802035,0.4674860,0.4525707,0.4633501,0.4765394,0.4563311,0.4333867,0.4160424,0.4544754,0.4538664,0.4500304,0.4488927,0.4648297,0.4886062,0.4794307,0.4680791,0.4750032,0.4841211,0.4685057,0.4736211,0.4742023,0.4842859,0.4849864,0.4831854,0.4915215,0.4695085,0.4482071,0.3963370,0.4070868,0.3743831,0.3440467,0.3225710,0.3330818,0.2763063,0.2409383,0.2285572,0.1977330,0.1908807,0.1837003,0.1912660,0.1881038,0.1840107,0.1854634,0.1784450,0.1664178,0.1375820,0.1716440,0.1780625,0.1970598,0.2111113,0.2289743,0.2473877,0.2788979,0.2927372,0.2915264,0.3568562,0.4170276,0.4358943,0.4706480,0.5219125,0.5227699,0.5178220,0.5318508,0.5458845,0.5527384,0.5449084,0.5649438,0.5673691,0.5735395,0.6032335,0.6293009,0.6325537,0.6547657,0.6547286,0.6983088,0.7184646,0.7401672,0.7800956,0.8181090,0.8795115,0.9174630,0.9666464,0.9538234,0.9500625,0.9070603,0.8653667,0.8128715,0.7807974,0.7349536,0.6930153,0.6819258,0.6728897,0.6640612,0.6387563,0.6304811,0.6220606,0.5892090,0.5738070,0.5749507,0.5718117,0.5426778,0.5282240,0.5166689,0.4849539,0.4736221,0.4704638,0.4731753,0.4587859,0.4371485,0.4479988,0.4845249,0.5231126,0.5220501,0.5094605,0.5394015,0.5428966,0.5304475,0.4952966,0.4796660,0.5012395,0.4870267,0.4911380,0.5062847,0.5163752,0.5258266,0.5231047,0.5224595,0.5344946,0.5418854,0.5682262,0.5856004,0.6054477,0.6054019,0.5903104,0.5633607,0.5440206,0.5221942,0.5073058,0.4967807,0.5066536,0.5343497,0.5363463,0.5380551,0.5582302,0.5418977,0.5505132,0.5442901,0.5570497,0.5516383,0.5844082,0.5761090
0.5289624,0.5495494,0.5445976,0.5510540,0.5425046,0.5545696,0.5183661,0.4969347,0.4830722,0.4645757,0.4599858,0.4664456,0.4539396,0.4371193,0.4236796,0.3886126,0.3661575,0.3265608,0.2874514,0.2584692,0.2599774,0.2486295,0.2449626,0.2567135,0.2638274,0.2362441,0.2154494,0.1802225,0.1719234,0.1467344,0.1211573,0.1053866,0.0906743,0.0794253,0.0860198,0.0932474,0.1100456,0.0927292,0.0856509,0.1055105,0.1044940,0.1298151,0.1321843,0.1204507,0.1204959,0.1251643,0.1209232,0.1351645,0.1667517,0.2212763,0.2183848,0.2477145,0.2774323,0.3075418,0.2901108,0.2985535,0.3064246,0.3297674,0.3300774,0.3275425,0.3153142,0.3318356,0.3527383,0.3669625,0.4004303,0.4092392,0.4175466,0.4207488,0.4433106,0.4465235,0.4464272,0.4701022,0.4658557,0.4635805,0.4752938,0.4819645,0.5048789,0.5264826,0.5439227,0.5313962,0.5281992,0.5185255,0.5048886,0.5258357,0.5069061,0.4768118,0.4851509,0.5019860,0.4995543,0.4740123,0.4542783,0.4528618,0.4683165,0.5115743,0.5225559,0.5136780,0.4923767,0.4627141,0.4543105,0.4815217,0.4878700,0.4645045,0.4582024,0.4688417,0.4422750,0.4170359,0.4177520,0.4479494,0.4445661,0.4386711,0.4363294,0.4482686,0.4627127,0.4748939,0.4800323,0.4599050,0.4510713,0.4611272,0.4503883,0.4393282,0.4550051,0.4669399,0.4652067,0.4936318,0.4846029,0.4486369,0.3955730,0.3927268,0.3643836,0.3398896,0.3246417,0.3134246,0.2572319,0.2265528,0.2193053,0.1989789,0.1822357,0.1657149,0.1641436,0.1810092,0.1849823,0.1876139,0.1780046,0.1488931,0.1475754,0.1778043,0.2069888,0.2017597,0.2181697,0.2409086,0.2536647,0.2722878,0.2780427,0.3197497,0.3811655,0.4390486,0.4439294,0.4682515,0.5278643,0.5279634,0.5176612,0.5433326,0.5430192,0.5536799,0.5426575,0.5644585,0.5668035,0.5913358,0.6087989,0.6406584,0.6865526,0.6942914,0.6951556,0.7035955,0.7236633,0.7553120,0.7780224,0.8061529,0.8713399,0.9082747,0.9662228,0.9626848,0.9331143,0.9077295,0.8867648,0.8519682,0.7978212,0.7471758,0.7179736,0.6916257,0.6558709,0.6488606,0.6423985,0.6288850,0.6095153,0.5685221,0.5643808,0.5660647,0.5644083,0.5742907,0.5373382,0.5086629,0.4723171,0.4632856,0.4766064,0.4699639,0.4536810,0.4523600,0.4516898,0.4636410,0.5049710,0.4912757,0.4914781,0.5108611,0.5166306,0.5103507,0.4971872,0.4863376,0.4667640,0.4641428,0.4812177,0.5067315,0.5214958,0.5128537,0.5356733,0.5605696,0.5590307,0.5550645,0.5576824,0.5967863,0.6056302,0.5844659,0.5788201,0.5696724,0.5766360,0.5486120,0.5507247,0.5299274,0.5428845,0.5532551,0.5483293,0.5388217,0.5522124,0.5644934,0.5793181,0.5594984,0.5507848,0.5709836,0.5641685,0.5478357
0.5165167,0.5341982,0.5418005,0.5455758,0.5617801,0.5661961,0.5303563,0.5168508,0.4991743,0.4681264,0.4731469,0.4598577,0.4365653,0.4406415,0.4234979,0.4115247,0.3917921,0.3455177,0.3179985,0.2853461,0.2683148,0.2740851,0.2544922,0.2596417,0.2631184,0.2392273,0.2305406,0.1761761,0.1548328,0.1395776,0.1398279,0.1200056,0.1139984,0.1266220,0.1280797,0.1124904,0.1198724,0.1289015,0.1332055,0.1315149,0.1102909,0.1091974,0.1099054,0.1153730,0.1110508,0.1152735,0.1212071,0.1551661,0.1723964,0.2078189,0.2097947,0.2430097,0.2658502,0.2871071,0.3156952,0.3008082,0.3097380,0.3309220,0.3373441,0.3280938,0.3127651,0.3252992,0.3465014,0.3647230,0.3791681,0.3857445,0.3859593,0.3978153,0.4228463,0.4500327,0.4376977,0.4613891,0.4564987,0.4696141,0.4686349,0.4693618,0.4919604,0.5295935,0.5405015,0.5403815,0.5354878,0.5230749,0.5126365,0.5160451,0.4879542,0.4816621,0.4827467,0.4853725,0.4840952,0.4766603,0.4706506,0.4793536,0.5102049,0.5173961,0.5160856,0.4996011,0.4962918,0.4803451,0.4642065,0.4610166,0.4569462,0.4443103,0.4387710,0.4475231,0.4282185,0.4235203,0.4027312,0.4101223,0.4220735,0.4474434,0.4350285,0.4613157,0.4625448,0.4694955,0.4767213,0.4567163,0.4652444,0.4822377,0.4643304,0.4380872,0.4522674,0.4507416,0.4582793,0.4729518,0.4494032,0.4225526,0.3921149,0.3833347,0.3668620,0.3567309,0.3169761,0.3015353,0.2477949,0.2238998,0.2020793,0.2195136,0.2040916,0.1816683,0.1688132,0.1607820,0.1650669,0.1588130,0.1724248,0.1735604,0.1712556,0.1946886,0.2081927,0.2081205,0.2281672,0.2246905,0.2539828,0.2687017,0.2827210,0.3223225,0.3739698,0.4233363,0.4471321,0.4806209,0.5118364,0.5194179,0.5164708,0.5509618,0.5668228,0.5575484,0.5580610,0.5606257,0.5645633,0.6033288,0.6178476,0.6635517,0.6929665,0.7196299,0.7315991,0.7271026,0.7544658,0.7798681,0.8154458,0.8483722,0.8756399,0.9242331,0.9579171,0.9523701,0.9305681,0.9116925,0.8737483,0.8459634,0.8205663,0.7587364,0.7212104,0.6743893,0.6434601,0.6404803,0.6465240,0.6116723,0.6036189,0.5634405,0.5628081,0.5589530,0.5892944,0.5757939,0.5314296,0.5117057,0.4723773,0.4603116,0.4577217,0.4720021,0.4692560,0.4614097,0.4440181,0.4628800,0.4578152,0.4669625,0.4731600,0.4891385,0.5120045,0.5033862,0.4924386,0.4711728,0.4495240,0.4594083,0.4797070,0.4972199,0.4998816,0.4943684,0.5245212,0.5647307,0.5576351,0.5528758,0.5391736,0.5687604,0.6050489,0.5996813,0.6028888,0.6052929,0.6139043,0.6018037,0.5797686,0.5639661,0.5746017,0.5686935,0.5519570,0.5808769,0.5987872,0.6084443,0.5935410,0.5906392,0.5584774,0.5824705,0.5899755,0.5643177
0.5231162,0.5371963,0.5620574,0.5737014,0.5681499,0.5748634,0.5606981,0.5337715,0.5174831,0.4848506,0.4481115,0.4383488,0.4231725,0.4277218,0.4308373,0.4153760,0.4000361,0.3683284,0.3348758,0.2983292,0.3004716,0.2929334,0.2751861,0.2769157,0.2498158,0.2429714,0.2259098,0.1793118,0.1779446,0.1629569,0.1453865,0.1564148,0.1484725,0.1583260,0.1548109,0.1330045,0.1364145,0.1665965,0.1544855,0.1349316,0.1310052,0.1022842,0.0819596,0.0831186,0.0834451,0.0997137,0.1320900,0.1668701,0.1904847,0.1988800,0.2122067,0.2384288,0.2540240,0.2905370,0.3190374,0.3146622,0.3231927,0.3078486,0.3122385,0.3080305,0.3150658,0.3424762,0.3550389,0.3704751,0.3633155,0.3711689,0.3721123,0.4041801,0.4283732,0.4316959,0.4376463,0.4613676,0.4613986,0.4864326,0.4777979,0.4947327,0.5034093,0.5306531,0.5295656,0.5520423,0.5491345,0.5166440,0.5343285,0.5139818,0.4917892,0.4681917,0.4543074,0.4665232,0.4768725,0.4769474,0.4913572,0.4934710,0.5179976,0.5220461,0.5021748,0.5142029,0.5072651,0.4639762,0.4443496,0.4590314,0.4315751,0.4111292,0.4006391,0.4196903,0.4134418,0.3992417,0.3966296,0.3997606,0.4184260,0.4560373,0.4613568,0.4574052,0.4599848,0.4728871,0.4869389,0.4920936,0.4759546,0.4899744,0.4855963,0.4543619,0.4402089,0.4559429,0.4602771,0.4602599,0.4369165,0.4115361,0.3973704,0.3959955,0.3664792,0.3544497,0.3092914,0.2850719,0.2693891,0.2396736,0.2175045,0.2289169,0.2147827,0.1770612,0.1769728,0.1571537,0.1417811,0.1418135,0.1410551,0.1653132,0.1809972,0.1814114,0.2062197,0.2134161,0.2299074,0.2251354,0.2574772,0.2690645,0.3019066,0.3186141,0.3679680,0.4089556,0.4275900,0.4655169,0.5006266,0.5222402,0.5165922,0.5545951,0.5748883,0.5583273,0.5632445,0.5540436,0.5815870,0.6138184,0.6423275,0.6938131,0.7133563,0.7445683,0.7448798,0.7523691,0.7789122,0.8042188,0.8391728,0.8647812,0.8850828,0.9487941,0.9597687,0.9607542,0.9276517,0.9073263,0.8849397,0.8294575,0.7935002,0.7485001,0.6964118,0.6476294,0.6112354,0.6082614,0.6247638,0.6032876,0.5895436,0.5534158,0.5306444,0.5355394,0.5616608,0.5500273,0.5285749,0.4991358,0.4726875,0.4758250,0.4656459,0.4577016,0.4705336,0.4478911,0.4463204,0.4456773,0.4432026,0.4316942,0.4359370,0.4551977,0.5009917,0.5123130,0.4933846,0.4631519,0.4536388,0.4675953,0.4881726,0.4662147,0.4788092,0.5023422,0.5079465,0.5551122,0.5579485,0.5600230,0.5610317,0.5767277,0.5949992,0.6251175,0.6163983,0.6177857,0.6260075,0.6280292,0.5826582,0.5748324,0.5606205,0.5699199,0.5933949,0.6020256,0.6134144,0.6290724,0.6260136,0.5940682,0.5834431,0.6101879,0.5891673,0.5807063
0.5392580,0.5603125,0.5577556,0.5668809,0.5708597,0.5715174,0.5693333,0.5315245,0.5211168,0.4766173,0.4428422,0.4223001,0.4318216,0.4331216,0.4227200,0.4085477,0.3924495,0.3656702,0.3368141,0.3079560,0.3060031,0.3017469,0.2916495,0.2923907,0.2698697,0.2656922,0.2484130,0.2168585,0.2046151,0.2006593,0.1895629,0.1917319,0.1860272,0.1840325,0.1660858,0.1722634,0.1829263,0.1786845,0.1496657,0.1340318,0.1197020,0.1029865,0.0847896,0.0958753,0.0963340,0.1007215,0.1267101,0.1571695,0.1941726,0.1921988,0.2035206,0.2180986,0.2449156,0.2617392,0.2931589,0.3069276,0.3260620,0.3196229,0.3098587,0.3150809,0.3284747,0.3429959,0.3742529,0.3877673,0.3668310,0.3682093,0.3735392,0.3907842,0.4183946,0.4319745,0.4303139,0.4589214,0.4797618,0.5082759,0.4973925,0.5055864,0.5099144,0.5238675,0.5259017,0.5457549,0.5469545,0.5477758,0.5457296,0.5227083,0.5045361,0.4807132,0.4652820,0.4652809,0.4717237,0.4759400,0.4716449,0.5043404,0.5097844,0.5137391,0.5012590,0.4913554,0.4651998,0.4365532,0.4401272,0.4203809,0.3974991,0.3857727,0.3825551,0.3917285,0.3754194,0.3917731,0.3899245,0.3969658,0.4058475,0.4283111,0.4598374,0.4671825,0.4615847,0.4512538,0.4593519,0.4922982,0.4728507,0.4684527,0.4595110,0.4358379,0.4379005,0.4336982,0.4540921,0.4458896,0.4285501,0.3962999,0.3828205,0.3919855,0.3591994,0.3210058,0.2855289,0.2790252,0.2641375,0.2429692,0.2180723,0.2140342,0.2096342,0.1998133,0.1789616,0.1443593,0.1175530,0.1238194,0.1533597,0.1592723,0.1675653,0.1835209,0.1996747,0.1978840,0.2254539,0.2248279,0.2450465,0.2709331,0.2970923,0.3274938,0.3660880,0.3924788,0.4174303,0.4689959,0.4886826,0.5179538,0.5332009,0.5768174,0.5691033,0.5660923,0.5663335,0.5921327,0.6138900,0.6427000,0.6488922,0.6763202,0.7280144,0.7569453,0.7735098,0.7907625,0.8130534,0.8491910,0.8750808,0.8729659,0.8943908,0.9436540,0.9657432,0.9813634,0.9526711,0.9153312,0.8788184,0.8293287,0.7782447,0.7493504,0.6968878,0.6511120,0.6385109,0.6089615,0.6248330,0.6072327,0.5609374,0.5305337,0.5273796,0.5320167,0.5263092,0.5210505,0.5218971,0.5020518,0.4910348,0.4836086,0.4662535,0.4436895,0.4486917,0.4516574,0.4414032,0.4367949,0.4243521,0.4182199,0.4309050,0.4502134,0.4958366,0.5096348,0.4810225,0.4676639,0.4782141,0.4700576,0.4690942,0.4647648,0.4818499,0.4823178,0.5151724,0.5329493,0.5340234,0.5408126,0.5478522,0.5881987,0.6028965,0.6262323,0.6400874,0.6520559,0.6369492,0.6345525,0.5991422,0.5957718,0.5607624,0.5835392,0.6030152,0.6021433,0.6115518,0.6267884,0.6325977,0.6414535,0.6096248,0.6156766,0.6115731,0.5883340
0.5486701,0.5507646,0.5714094,0.5606716,0.5727714,0.5657050,0.5663214,0.5383288,0.5191482,0.5061849,0.4574730,0.4310947,0.4353423,0.4145440,0.4231794,0.4180633,0.4141184,0.3800865,0.3414500,0.3243228,0.3064279,0.2992145,0.2903847,0.2730229,0.2845267,0.2777803,0.2763716,0.2539754,0.2475012,0.2533077,0.2235245,0.2171124,0.1999832,0.1838307,0.1605008,0.1556557,0.1750056,0.1730577,0.1552039,0.1366221,0.1246840,0.1093065,0.1036128,0.1002517,0.1248144,0.1415472,0.1567855,0.1806845,0.1802235,0.1922634,0.1689552,0.1863576,0.2138123,0.2452485,0.2771403,0.2845691,0.3143494,0.3212045,0.3067347,0.3107111,0.3200634,0.3454249,0.3849409,0.3715388,0.3657614,0.3826176,0.3866822,0.4021574,0.3995727,0.4202596,0.4312565,0.4529166,0.4697558,0.4872536,0.4946181,0.5023368,0.5247553,0.5239645,0.5352082,0.5293126,0.5270946,0.5269102,0.5251480,0.5368399,0.5048427,0.4870228,0.4826647,0.4902974,0.4768225,0.4927250,0.4823271,0.4888122,0.5047660,0.5162859,0.5115704,0.4802151,0.4429081,0.4145267,0.4239146,0.4177374,0.3978095,0.3868409,0.3772062,0.3703976,0.3605088,0.3783720,0.3727338,0.3782447,0.4010543,0.4281817,0.4367059,0.4527737,0.4747135,0.4555692,0.4755438,0.4854455,0.4783816,0.4739383,0.4623761,0.4334796,0.4269947,0.4255375,0.4231715,0.4200946,0.4158304,0.3940447,0.3794020,0.3607605,0.3497492,0.3215879,0.2952073,0.2883893,0.2601747,0.2519990,0.2304587,0.2293230,0.2179440,0.2261276,0.1893176,0.1405980,0.1217291,0.1512895,0.1528224,0.1576427,0.1402332,0.1611151,0.1877884,0.2049832,0.2342305,0.2581949,0.2600830,0.2615244,0.2819802,0.3149104,0.3692127,0.3943546,0.4128983,0.4504214,0.4650350,0.4957352,0.5251012,0.5641761,0.5939448,0.5941473,0.5844632,0.6014946,0.6113156,0.6458188,0.6459255,0.6706255,0.7126662,0.7362534,0.7742619,0.8133332,0.8446141,0.8546715,0.8762220,0.9074541,0.9300871,0.9496103,0.9760717,0.9889659,0.9623586,0.9166549,0.8715099,0.8308892,0.7739633,0.7387664,0.7059512,0.6664514,0.6611579,0.6218397,0.6205872,0.5839035,0.5624046,0.5331619,0.5268222,0.5379857,0.5207927,0.5197267,0.5217839,0.5005249,0.4605571,0.4622515,0.4463012,0.4333687,0.4254102,0.4353882,0.4411051,0.4477637,0.4423340,0.4491380,0.4582631,0.4523450,0.4779029,0.4909749,0.5000531,0.4908431,0.4694739,0.4621137,0.4727101,0.4698433,0.4866033,0.5025558,0.5396051,0.5337599,0.5320313,0.5402511,0.5386262,0.5781195,0.6021921,0.6464190,0.6358782,0.6357986,0.6301418,0.6257702,0.6129817,0.6102254,0.5945794,0.5945110,0.6102953,0.6126195,0.6122682,0.6392529,0.6521231,0.6596044,0.6403688,0.6295203,0.6256603,0.5943992
0.5614942,0.5378834,0.5521104,0.5496988,0.5556625,0.5467967,0.5453728,0.5435497,0.5427132,0.5274411,0.4778912,0.4428143,0.4493295,0.4390431,0.4371627,0.4114426,0.4180939,0.3793927,0.3601402,0.3372556,0.3211445,0.3166903,0.2915674,0.2727204,0.2875153,0.2687282,0.2660058,0.2715209,0.2488747,0.2632489,0.2589673,0.2426130,0.1981550,0.1827723,0.1766213,0.1670878,0.1761023,0.1753800,0.1675396,0.1197190,0.1195149,0.1175685,0.1229073,0.1245993,0.1287210,0.1548923,0.1569885,0.1553078,0.1784131,0.1711959,0.1580493,0.1642218,0.1865720,0.2426157,0.2387312,0.2744575,0.3093525,0.3230413,0.3276752,0.3206557,0.3124254,0.3425833,0.3746081,0.3933423,0.3769633,0.3772147,0.3759944,0.3839185,0.3809218,0.3886698,0.3981334,0.4261008,0.4492039,0.4705221,0.4647522,0.4927141,0.5085598,0.5250758,0.5109497,0.5019834,0.5045516,0.5275880,0.5395079,0.5296139,0.5285782,0.5185708,0.5119131,0.4883761,0.4913824,0.5096764,0.5155619,0.5105429,0.5141270,0.5167295,0.4844081,0.4654394,0.4490927,0.4276398,0.4062249,0.4116511,0.4009005,0.3895420,0.3730221,0.3608348,0.3644738,0.3630318,0.3834045,0.3662830,0.3758077,0.4195335,0.4346319,0.4711309,0.4719673,0.4834290,0.4681278,0.4787305,0.4698697,0.4665906,0.4491463,0.4324807,0.4181111,0.4132458,0.4105677,0.4312767,0.4117709,0.4052858,0.3803816,0.3704177,0.3438054,0.3178520,0.3163121,0.2997765,0.2659398,0.2416022,0.2258741,0.2361819,0.2418334,0.2368778,0.1794048,0.1531790,0.1475062,0.1576344,0.1491091,0.1636503,0.1654873,0.1734406,0.1846745,0.1933916,0.2321372,0.2604978,0.2929397,0.3013058,0.3192220,0.3207590,0.3758751,0.4155305,0.4278158,0.4402873,0.4468299,0.4739600,0.5200713,0.5501225,0.5815114,0.6091862,0.6027981,0.6007603,0.6095723,0.6354075,0.6638892,0.6723509,0.6881586,0.7401484,0.7776832,0.8255541,0.8454046,0.8514654,0.8966376,0.9205514,0.9362038,0.9725367,0.9837987,1.0000000,0.9531200,0.9129769,0.8425640,0.7985193,0.7535319,0.7294355,0.6963647,0.6715298,0.6620275,0.6353670,0.6255581,0.5855371,0.5479084,0.5381654,0.5085983,0.5220436,0.5254058,0.5356109,0.5076751,0.4819758,0.4669286,0.4585152,0.4425640,0.4372523,0.4181999,0.4340272,0.4333463,0.4465831,0.4265170,0.4505131,0.4553460,0.4727817,0.4823376,0.4600433,0.4585872,0.4572794,0.4588407,0.4442624,0.4510559,0.4439614,0.4724833,0.5042310,0.5356263,0.5316597,0.5272624,0.5343922,0.5637346,0.5796613,0.6010232,0.6381550,0.6356753,0.6382070,0.6237109,0.6144621,0.6046660,0.6122167,0.6005296,0.5918533,0.5929013,0.5954785,0.6201538,0.6237598,0.6424483,0.6532486,0.6554474,0.6294911,0.6367067,0.6076904
0.5469708,0.5241352,0.5405594,0.5478728,0.5426039,0.5466523,0.5412734,0.5388144,0.5553785,0.5285552,0.4949902,0.4878684,0.4877998,0.4634006,0.4328701,0.4335521,0.4186125,0.4047070,0.3777068,0.3472790,0.3297204,0.3256486,0.3295215,0.3031464,0.2803066,0.2775240,0.2754793,0.2646044,0.2474270,0.2430069,0.2451363,0.2266505,0.2040808,0.1897580,0.1762628,0.1509979,0.1440699,0.1642043,0.1585907,0.1430712,0.1150364,0.1106758,0.1230607,0.1348269,0.1440368,0.1385916,0.1369977,0.1346088,0.1453955,0.1651257,0.1420942,0.1609987,0.1788512,0.2280199,0.2496950,0.2557279,0.2949841,0.3269488,0.3217035,0.3063624,0.3126622,0.3344647,0.3767606,0.3791899,0.3782223,0.3708642,0.3725038,0.3627950,0.3756907,0.3649712,0.3577553,0.3886085,0.4051651,0.4345469,0.4380191,0.4542433,0.4700592,0.4874740,0.4888328,0.5091328,0.5137255,0.5372071,0.5360274,0.5228935,0.5024597,0.5208641,0.4930128,0.4968190,0.4945895,0.4882538,0.4970012,0.5028750,0.4979677,0.4906710,0.4864321,0.4792866,0.4461471,0.4353069,0.4205972,0.4165122,0.3933825,0.4068429,0.4071419,0.3735003,0.3774955,0.3738464,0.3839782,0.3633551,0.3863300,0.4314424,0.4393474,0.4566418,0.4550750,0.4596456,0.4758905,0.4778565,0.4802750,0.4829731,0.4545582,0.4434520,0.4462194,0.4267857,0.4106510,0.4172538,0.4187048,0.4105571,0.3799102,0.3639073,0.3389994,0.3193951,0.3175140,0.2963669,0.2748547,0.2554719,0.2520601,0.2716952,0.2546188,0.2338217,0.1840591,0.1680223,0.1525609,0.1516010,0.1452544,0.1497155,0.1487009,0.1463409,0.1481047,0.1727193,0.2305471,0.2826846,0.2981104,0.3123532,0.3366161,0.3536506,0.3784252,0.3946840,0.4297180,0.4299003,0.4287010,0.4666785,0.5169895,0.5464858,0.5844678,0.6028895,0.6132898,0.6306437,0.6310682,0.6451210,0.6655522,0.6546031,0.6762058,0.7473514,0.7665948,0.8059748,0.8118688,0.8474380,0.8698368,0.9013057,0.9517986,0.9788998,0.9916825,0.9910262,0.9353016,0.9086502,0.8484628,0.7998103,0.7521426,0.7194615,0.6946779,0.6766879,0.6642283,0.6306698,0.6014115,0.5792719,0.5369057,0.5206011,0.5170227,0.5400942,0.5420836,0.5364647,0.5061511,0.4848356,0.4819326,0.4734296,0.4483155,0.4354431,0.4330372,0.4474224,0.4414942,0.4421952,0.4465520,0.4452067,0.4562206,0.4831562,0.4694851,0.4306827,0.4285989,0.4225259,0.4311585,0.4439681,0.4619172,0.4664633,0.4865891,0.4898328,0.5018717,0.5061019,0.5201542,0.5395894,0.5675749,0.5966864,0.5949630,0.6141409,0.6228838,0.6285569,0.5955356,0.5850035,0.5790752,0.5831715,0.5922021,0.6020858,0.5965432,0.5831847,0.6141035,0.6288474,0.6559936,0.6687068,0.6652656,0.6457483,0.6413787,0.6300599
0.5214246,0.5214366,0.5252039,0.5334999,0.5431537,0.5384806,0.5329160,0.5481190,0.5581048,0.5253995,0.5147621,0.5024337,0.4815560,0.4636537,0.4399835,0.4450043,0.4227775,0.4169603,0.3828289,0.3695124,0.3480871,0.3387004,0.3457192,0.3153030,0.2852849,0.2794595,0.2836109,0.2545223,0.2427381,0.2387603,0.2477283,0.2207805,0.1979601,0.1834619,0.1863690,0.1665738,0.1532418,0.1489931,0.1511100,0.1613749,0.1505993,0.1487788,0.1565917,0.1316614,0.1267484,0.1128075,0.1176891,0.1473070,0.1654662,0.1735097,0.1428377,0.1629471,0.1683868,0.1972302,0.2320967,0.2422842,0.2685294,0.3030057,0.3023996,0.2887020,0.2940400,0.3109456,0.3238994,0.3290254,0.3603013,0.3768468,0.3635416,0.3713924,0.3769509,0.3502938,0.3536041,0.3563552,0.3750548,0.4107603,0.4084050,0.4377747,0.4491768,0.4406766,0.4489911,0.4917175,0.4888631,0.5076975,0.5006743,0.5128440,0.4879921,0.5114214,0.5195866,0.5187941,0.5171367,0.5148931,0.4920753,0.4785055,0.5127191,0.5016274,0.4797080,0.4965605,0.4905867,0.4831573,0.4554309,0.4205106,0.4070545,0.4271445,0.4124394,0.4006327,0.3883193,0.3832940,0.3818402,0.3626706,0.3946753,0.4177455,0.4391541,0.4522877,0.4408162,0.4660171,0.4673561,0.4736306,0.4749191,0.4709816,0.4677601,0.4416204,0.4351711,0.4081216,0.4179538,0.4295912,0.4317990,0.3895454,0.3945911,0.3835715,0.3581212,0.3452692,0.3337065,0.3163737,0.2983724,0.2713352,0.2400717,0.2441001,0.2416169,0.2177018,0.1817709,0.1591308,0.1463511,0.1514985,0.1551950,0.1433398,0.1435415,0.1399796,0.1446034,0.1771001,0.2201908,0.2744361,0.3039624,0.3383542,0.3558392,0.3621855,0.3774687,0.3887105,0.4168084,0.4395890,0.4507822,0.4729972,0.5366047,0.5407969,0.5492614,0.5932415,0.6277269,0.6237978,0.6200248,0.6619148,0.6763976,0.6602521,0.6928803,0.7526808,0.7670462,0.7826272,0.8222905,0.8531466,0.8877665,0.9068171,0.9279831,0.9767074,0.9923491,0.9841935,0.9139097,0.8822624,0.8350120,0.7769463,0.7324867,0.7125883,0.6994273,0.6727778,0.6443500,0.6265723,0.5906470,0.5624520,0.5216328,0.5007822,0.5150115,0.5474921,0.5330869,0.5200530,0.5239818,0.5023851,0.4920759,0.4756532,0.4844699,0.4811510,0.4609231,0.4595613,0.4717415,0.4497511,0.4415502,0.4569070,0.4664046,0.4657363,0.4359658,0.4124220,0.4196258,0.4233487,0.4409881,0.4539442,0.4663364,0.4814223,0.4781026,0.4778913,0.5019512,0.5086869,0.5096634,0.5161082,0.5462729,0.5677332,0.6051273,0.6130327,0.6288060,0.6227796,0.6016861,0.5772057,0.5813394,0.5745648,0.5799465,0.6032792,0.5829071,0.5768637,0.6213817,0.6296552,0.6785392,0.6837177,0.6552241,0.6536198,0.6399379,0.6361799
0.5272282,0.5471589,0.5485066,0.5241571,0.5295733,0.5217915,0.5442275,0.5373251,0.5520408,0.5155915,0.4955052,0.4921251,0.4759942,0.4571028,0.4363687,0.4370184,0.4401585,0.4485890,0.4287831,0.4052496,0.3579404,0.3486493,0.3440994,0.3140893,0.2981373,0.2908963,0.2622659,0.2622617,0.2367342,0.2317177,0.2242841,0.2049082,0.1720350,0.2036952,0.1893794,0.1558443,0.1584104,0.1806092,0.1691573,0.1621989,0.1591877,0.1578101,0.1391548,0.1343490,0.1310969,0.1022195,0.1267621,0.1544383,0.1533244,0.1567043,0.1589274,0.1602666,0.1761248,0.1912339,0.2228317,0.2361416,0.2559865,0.2977108,0.3025705,0.3026402,0.2872300,0.2765021,0.2991169,0.3193591,0.3520030,0.3719958,0.3924206,0.3863447,0.3959589,0.3721303,0.3509917,0.3498378,0.3646175,0.3861266,0.3930855,0.4099038,0.4379754,0.4277133,0.4402085,0.4844076,0.4913416,0.4653770,0.4952998,0.5057521,0.4908525,0.5146110,0.5342319,0.5274988,0.5325249,0.5167749,0.4792676,0.4838470,0.5212878,0.5129919,0.4954866,0.4858393,0.4733211,0.4849598,0.4557807,0.4364796,0.4299547,0.4281318,0.4231908,0.4156250,0.3980718,0.3954195,0.3909251,0.3810150,0.3901641,0.3949345,0.4314983,0.4344049,0.4452982,0.4765794,0.4756949,0.4805423,0.4771990,0.4569972,0.4515311,0.4321417,0.4270424,0.4077659,0.4267082,0.4390021,0.4301282,0.4048213,0.3809816,0.3676312,0.3616253,0.3412979,0.3312290,0.2960340,0.2930795,0.2601036,0.2398264,0.2188672,0.2161532,0.1961837,0.1761146,0.1728095,0.1831662,0.1645489,0.1559505,0.1348506,0.1323700,0.1325275,0.1372340,0.1592308,0.2102641,0.2672162,0.3059799,0.3323282,0.3365276,0.3455921,0.3453957,0.3574566,0.3831148,0.4241207,0.4522393,0.4922448,0.5343446,0.5331014,0.5429234,0.5640675,0.6040054,0.5980062,0.6246838,0.6522699,0.6742059,0.6772872,0.7055205,0.7487422,0.7803829,0.7992811,0.8485849,0.8812711,0.8876044,0.9199623,0.9217612,0.9495969,0.9670602,0.9512416,0.8964516,0.8513749,0.8206395,0.7608601,0.7170578,0.7152997,0.6976881,0.6729160,0.6585062,0.6519509,0.6084532,0.5683900,0.5430869,0.5357704,0.5412958,0.5489047,0.5200353,0.5107308,0.5066087,0.4771592,0.4835582,0.4726515,0.4899772,0.4807023,0.4819996,0.4830883,0.4845190,0.4605194,0.4418728,0.4450629,0.4295178,0.4227945,0.4012196,0.3912160,0.3927439,0.4245804,0.4340578,0.4560331,0.4770635,0.4850371,0.4919530,0.4853080,0.5096339,0.5107695,0.5064950,0.5050919,0.5251155,0.5603121,0.5797995,0.5958673,0.6207730,0.6126890,0.6045355,0.5884566,0.5830197,0.5971589,0.5885788,0.5975723,0.5805760,0.5966305,0.6309384,0.6484811,0.6836857,0.6738692,0.6678307,0.6478032,0.6281863,0.6226612
0.5626631,0.5553283,0.5372084,0.5283398,0.5074263,0.5120338,0.5175542,0.5173416,0.5235551,0.5061325,0.5091875,0.5050062,0.4772389,0.4541979,0.4322290,0.4201475,0.4398932,0.4502052,0.4353800,0.4300786,0.3785251,0.3509631,0.3280629,0.3232848,0.3045715,0.2802856,0.2673917,0.2462916,0.2409413,0.2336515,0.2145568,0.1875742,0.1923889,0.2156908,0.2090448,0.1796779,0.1642352,0.1785963,0.1571971,0.1509292,0.1472362,0.1172287,0.1192936,0.1297024,0.1075697,0.1068371,0.1105418,0.1294230,0.1643949,0.1513064,0.1428367,0.1675400,0.1742296,0.1939267,0.2346515,0.2368515,0.2729321,0.2809011,0.2855157,0.2937486,0.2939211,0.3006072,0.2979851,0.3309253,0.3400057,0.3597950,0.3861842,0.4082956,0.4183070,0.3998811,0.3643778,0.3411317,0.3566546,0.3895293,0.4134254,0.3996865,0.4235058,0.4491240,0.4504849,0.4683076,0.4718357,0.4586181,0.4677633,0.4997637,0.4972746,0.5187052,0.5296964,0.5383870,0.5299364,0.5372663,0.4929037,0.4908087,0.5034376,0.5107807,0.5029499,0.4999548,0.4880635,0.4780646,0.4752109,0.4419658,0.4334487,0.4415871,0.4551429,0.4217506,0.4088762,0.4064570,0.3825227,0.3842046,0.3920779,0.4070439,0.4216248,0.4301652,0.4465770,0.4568759,0.4677284,0.4560713,0.4572850,0.4514955,0.4449204,0.4538456,0.4420279,0.4357112,0.4480910,0.4374438,0.4397992,0.4178214,0.3852092,0.3738727,0.3580357,0.3320067,0.3396709,0.3162145,0.3049898,0.2706640,0.2596970,0.2248995,0.2029489,0.1888119,0.1709044,0.1845355,0.1811761,0.1852609,0.1802651,0.1475388,0.1261904,0.1495772,0.1739423,0.2012263,0.2205162,0.2746782,0.3054597,0.3095715,0.3340274,0.3398033,0.3490542,0.3573712,0.3815111,0.4114040,0.4434936,0.4894808,0.5296780,0.5331851,0.5255299,0.5488262,0.5755373,0.5728983,0.6133290,0.6581133,0.6593014,0.6827644,0.7051260,0.7274253,0.7653819,0.8241685,0.8574242,0.8745953,0.8868587,0.8884310,0.8957590,0.9135002,0.9357394,0.9145468,0.8597150,0.8171118,0.7931796,0.7296325,0.7017625,0.6960232,0.6742821,0.6584733,0.6747769,0.6545252,0.6331774,0.5708823,0.5464319,0.5275776,0.5252651,0.5312635,0.5113838,0.4929686,0.4831716,0.4740357,0.4657846,0.4708699,0.4739252,0.4406682,0.4482328,0.4566074,0.4784648,0.4631883,0.4261571,0.4012461,0.4068060,0.4069494,0.3844007,0.3931172,0.3838146,0.4123816,0.4341756,0.4381496,0.4434969,0.4768088,0.4907766,0.4935554,0.4931257,0.4891306,0.5005419,0.5070480,0.5131608,0.5174967,0.5388146,0.5752765,0.5924900,0.5922467,0.5826984,0.5818159,0.5474374,0.5658303,0.5918164,0.5844730,0.5911997,0.6035717,0.6150989,0.6373185,0.6619418,0.6692437,0.6677859,0.6480676,0.6229485,0.6230090
0.5563274,0.5511118,0.5502274,0.5208707,0.5005532,0.5254198,0.5054641,0.4935844,0.4901328,0.4960805,0.5096246,0.5039896,0.4939486,0.4524622,0.4470710,0.4481408,0.4826371,0.4841712,0.4470834,0.4270524,0.3965528,0.3777488,0.3512604,0.3207190,0.2856329,0.2711170,0.2645931,0.2537195,0.2240263,0.2009817,0.1798281,0.2015556,0.2067950,0.1962835,0.2109720,0.1991924,0.1777776,0.1605744,0.1581267,0.1286478,0.1275531,0.1239452,0.1372277,0.1192883,0.1078354,0.1232230,0.1313056,0.1368717,0.1589231,0.1571671,0.1471100,0.1758829,0.1967080,0.2131105,0.2456354,0.2434642,0.2587820,0.2724203,0.2965476,0.3031492,0.2951264,0.3024667,0.3163876,0.3188015,0.3128395,0.3340394,0.3849045,0.4041192,0.3916164,0.4021409,0.3596483,0.3540767,0.3600938,0.3941408,0.4087231,0.4078555,0.4308865,0.4364402,0.4421241,0.4317781,0.4527113,0.4543039,0.4711007,0.4750337,0.4894962,0.4822159,0.4977981,0.5202706,0.5222574,0.4977299,0.4691468,0.4687448,0.4709424,0.4856326,0.5105074,0.4903044,0.4816267,0.4844117,0.4796426,0.4525703,0.4568609,0.4495873,0.4702287,0.4395749,0.4181118,0.4208218,0.4094738,0.3955397,0.3924165,0.3905258,0.4059642,0.4109923,0.4320900,0.4348443,0.4450237,0.4543796,0.4506199,0.4324316,0.4560110,0.4716551,0.4714753,0.4731886,0.4523956,0.4441010,0.4515211,0.4408497,0.4178939,0.3933798,0.3795886,0.3498481,0.3369554,0.3305025,0.2976319,0.2795309,0.2439221,0.2239556,0.1931323,0.1583515,0.1360267,0.1516770,0.1459324,0.1766744,0.1753685,0.1746287,0.1664647,0.1619211,0.1738589,0.2166798,0.2334793,0.2660701,0.3117733,0.3189051,0.3094680,0.2946229,0.3266496,0.3411080,0.3735552,0.3741900,0.4236865,0.4889501,0.5190317,0.5178967,0.5008805,0.4967094,0.5213083,0.5456056,0.5908968,0.6254736,0.6573843,0.6613915,0.7143203,0.7509844,0.7761662,0.7985661,0.8236580,0.8584158,0.8721402,0.8621373,0.8910563,0.8905473,0.9095270,0.8879990,0.8403144,0.8086544,0.7626038,0.7318531,0.7119169,0.6958092,0.6958369,0.6621910,0.6784699,0.6405844,0.6003853,0.5851690,0.5587168,0.5494075,0.5419802,0.5172682,0.5017643,0.4867679,0.4923975,0.4703219,0.4506535,0.4648716,0.4598331,0.4259728,0.4337007,0.4383661,0.4480302,0.4302108,0.4099085,0.3863422,0.3710566,0.3802335,0.3708407,0.3909906,0.3885647,0.4038747,0.4185038,0.4029278,0.4093577,0.4366099,0.4700182,0.4805509,0.4974392,0.4940253,0.5108098,0.4978069,0.4899111,0.4898595,0.5298425,0.5405255,0.5580139,0.5639106,0.5563604,0.5612204,0.5463568,0.5561180,0.5881647,0.6083327,0.6134420,0.6318161,0.6246725,0.6450998,0.6401375,0.6373072,0.6288151,0.6244354,0.6215354,0.6009424
0.5427246,0.5501764,0.5626187,0.5333789,0.5230466,0.5382063,0.5347713,0.5213166,0.5101089,0.5306293,0.5231994,0.5320116,0.5117712,0.4820799,0.4964988,0.4826238,0.4921386,0.4804925,0.4570933,0.4322335,0.4059958,0.3799586,0.3496197,0.3388270,0.2857419,0.2773732,0.2489217,0.2430149,0.2266731,0.2015284,0.2071132,0.2108051,0.2116584,0.2235871,0.2347137,0.2147264,0.2058434,0.1729453,0.1485260,0.1249039,0.1408725,0.1342407,0.1477466,0.1200518,0.1100302,0.1426940,0.1545513,0.1613774,0.1770040,0.1568062,0.1451740,0.1617097,0.2010368,0.2111039,0.2313498,0.2511694,0.2780403,0.2975908,0.3200085,0.3237441,0.3356434,0.3370409,0.3311206,0.3245464,0.3383544,0.3488793,0.3580424,0.3629695,0.3963605,0.3833884,0.3824448,0.3774034,0.3761401,0.3979973,0.4067142,0.4350205,0.4442760,0.4570238,0.4532673,0.4467781,0.4629441,0.4531858,0.4626363,0.4815941,0.4965817,0.4802088,0.4995737,0.5003846,0.4909679,0.4701431,0.4572251,0.4616515,0.4766492,0.4846236,0.5036411,0.5165970,0.5146578,0.4971084,0.4947489,0.4730923,0.4718316,0.4513196,0.4689542,0.4654135,0.4699868,0.4430522,0.4141068,0.4068074,0.4071284,0.3963350,0.3994461,0.4027493,0.4099837,0.4242257,0.4468454,0.4661027,0.4407347,0.4347694,0.4566443,0.4566006,0.4646833,0.4760201,0.4615430,0.4466778,0.4530345,0.4341201,0.4059738,0.4005089,0.3912072,0.3622986,0.3219511,0.3227075,0.3108740,0.2695576,0.2447617,0.2403969,0.2120484,0.1716432,0.1405046,0.1296938,0.1642233,0.1732083,0.1853251,0.1994816,0.1932290,0.1740275,0.2082732,0.2361389,0.2413220,0.2793898,0.2959937,0.3102334,0.3069918,0.2944886,0.3163395,0.3269439,0.3555398,0.3612977,0.4021424,0.4614373,0.4837961,0.4854683,0.4804710,0.4801481,0.4880310,0.5214828,0.5769872,0.5976801,0.6362860,0.6750980,0.7268595,0.7534816,0.7894516,0.7967058,0.8004614,0.8460774,0.8550094,0.8749174,0.8677564,0.8711187,0.8728566,0.8644771,0.8389596,0.8184780,0.7750206,0.7268989,0.7062412,0.6867115,0.6879068,0.6695092,0.6546219,0.6241425,0.5867824,0.5697251,0.5531785,0.5561575,0.5687388,0.5295691,0.5042475,0.5009775,0.4671160,0.4422757,0.4222545,0.4248121,0.4417359,0.4233325,0.4205141,0.4286177,0.4419693,0.4020904,0.3945663,0.3668994,0.3606809,0.3732770,0.3978741,0.3956463,0.4129671,0.3998202,0.4090465,0.4083102,0.4194027,0.4343359,0.4636845,0.4797610,0.4977079,0.4756187,0.4969518,0.5021853,0.5032716,0.4935235,0.5210631,0.5216664,0.5347062,0.5354239,0.5453206,0.5568236,0.5590919,0.5486454,0.5637898,0.5923150,0.6396404,0.6454486,0.6149161,0.6211739,0.6117684,0.6065202,0.6105134,0.6064521,0.6039360,0.6135412
0.5635667,0.5882447,0.5916827,0.5735123,0.5401754,0.5278378,0.5369389,0.5364643,0.5361238,0.5470031,0.5571947,0.5540991,0.5086614,0.5129231,0.5000819,0.4918271,0.4903854,0.4658205,0.4613148,0.4194594,0.3993810,0.3598869,0.3364860,0.3243960,0.2900632,0.2649393,0.2522913,0.2493611,0.2367634,0.2143698,0.2073325,0.2277122,0.2421997,0.2369138,0.2248241,0.2108858,0.2015768,0.1721309,0.1476043,0.1327901,0.1399132,0.1387458,0.1547616,0.1388684,0.1549283,0.1629957,0.1732488,0.1904622,0.1762685,0.1630563,0.1711429,0.1911085,0.2020782,0.2108822,0.2362082,0.2812065,0.2927396,0.3119429,0.3316795,0.3516626,0.3674514,0.3448430,0.3195370,0.3273535,0.3414692,0.3532149,0.3438277,0.3630182,0.3700763,0.3866321,0.3778426,0.3649280,0.3673308,0.3997223,0.4379600,0.4481805,0.4521412,0.4794799,0.4646374,0.4701209,0.4621785,0.4671972,0.4514343,0.4593834,0.4805082,0.5076465,0.5113416,0.4980328,0.4853596,0.4581018,0.4569169,0.4545510,0.4761691,0.4839939,0.4953954,0.4954649,0.5022712,0.4786210,0.5027313,0.5013126,0.4915609,0.4736548,0.4658159,0.4863289,0.4736724,0.4505331,0.4272939,0.4086314,0.4064243,0.4058277,0.4124010,0.4025193,0.4051860,0.4389048,0.4667816,0.4555237,0.4568201,0.4346914,0.4611684,0.4632132,0.4730600,0.4794472,0.4728727,0.4650547,0.4667492,0.4549113,0.4233745,0.4100332,0.3846132,0.3668347,0.3391725,0.3190916,0.3038293,0.2535534,0.2332037,0.2200514,0.2000678,0.1445439,0.1441158,0.1459798,0.1817298,0.2021805,0.2092837,0.1986367,0.1938758,0.2036585,0.2190863,0.2640729,0.2623051,0.2715681,0.2774074,0.2867980,0.2894373,0.2792064,0.3046378,0.3053289,0.3341542,0.3506904,0.3778282,0.4193771,0.4558305,0.4504560,0.4601197,0.4505369,0.4751664,0.5128621,0.5674817,0.6135413,0.6401002,0.6702530,0.6996325,0.7331264,0.7536509,0.7536727,0.7654847,0.8119249,0.8364680,0.8629630,0.8479932,0.8375340,0.8487008,0.8791604,0.8309663,0.8039208,0.7790015,0.7519130,0.6985514,0.6551636,0.6443883,0.6616914,0.6591062,0.6098569,0.5895867,0.5731738,0.5561838,0.5689238,0.5796669,0.5499508,0.5097071,0.4867040,0.4566204,0.4235835,0.4148513,0.4159987,0.4123339,0.4154411,0.4153681,0.3911842,0.4018481,0.4019316,0.3886694,0.3619390,0.3697331,0.3805298,0.4057821,0.4103260,0.4022185,0.3980741,0.3981867,0.3975499,0.4314636,0.4301094,0.4502222,0.4682462,0.4628101,0.4662839,0.4911702,0.4960825,0.5108602,0.4876372,0.4959275,0.4826007,0.5043560,0.5164632,0.5318627,0.5340340,0.5547837,0.5629005,0.5710937,0.6144345,0.6388280,0.6329565,0.6024449,0.6028773,0.5962014,0.5971409,0.6036664,0.6103589,0.6278539,0.6105551
0.6019900,0.6079243,0.6085805,0.6039281,0.5829723,0.5583000,0.5721181,0.5667425,0.5639682,0.5461608,0.5618372,0.5676721,0.5217890,0.5188459,0.5114681,0.5042707,0.4908036,0.4824067,0.4697854,0.4271639,0.3981920,0.3758921,0.3589962,0.3243456,0.2998035,0.2811692,0.2890652,0.2869959,0.2639633,0.2556778,0.2401320,0.2335295,0.2435097,0.2466382,0.2444379,0.2146125,0.1952483,0.1695510,0.1725300,0.1705429,0.1730010,0.1473921,0.1630111,0.1519839,0.1641661,0.1675499,0.1612884,0.1663862,0.1655090,0.1716622,0.1825306,0.2042624,0.1980546,0.2103629,0.2533762,0.2919484,0.3132575,0.3384571,0.3548128,0.3727219,0.3753868,0.3497095,0.3488317,0.3497255,0.3480859,0.3655137,0.3633108,0.3653915,0.3550136,0.3795547,0.3781308,0.3878129,0.3924595,0.4006127,0.4496275,0.4763433,0.4694804,0.4950820,0.5014209,0.4950427,0.4773123,0.4689425,0.4512935,0.4336988,0.4586668,0.4976291,0.4816008,0.4830935,0.4719531,0.4792545,0.4552362,0.4353550,0.4381494,0.4644414,0.4694200,0.4826468,0.4669592,0.4836684,0.5083077,0.5104961,0.5150841,0.5007158,0.4898278,0.5038840,0.5010187,0.4763298,0.4575162,0.4166151,0.3979483,0.4013276,0.4145551,0.4159749,0.4426770,0.4583242,0.4635861,0.4604069,0.4585795,0.4624075,0.4731695,0.4679153,0.4825946,0.4707215,0.4669338,0.4806637,0.4901801,0.4471287,0.4244902,0.4019254,0.3923133,0.3619401,0.3255431,0.3083189,0.2690872,0.2356468,0.2350889,0.2120983,0.1796867,0.1473309,0.1590102,0.1570207,0.1841271,0.2063700,0.1950040,0.1934876,0.1876494,0.1899931,0.2132492,0.2649187,0.2659681,0.2676082,0.2671048,0.2821095,0.2818996,0.2688590,0.2637928,0.2955239,0.3031473,0.3092656,0.3579006,0.3966195,0.4214932,0.4324108,0.4170846,0.4302287,0.4793432,0.5241702,0.5463454,0.5857968,0.6377342,0.6533125,0.6869999,0.7192945,0.7309404,0.7387628,0.7608671,0.7827306,0.8048033,0.8288723,0.8481323,0.8425600,0.8650473,0.8722738,0.8468398,0.8265319,0.7829829,0.7387431,0.6947948,0.6674194,0.6536750,0.6490958,0.6383346,0.5950560,0.5696999,0.5524734,0.5618519,0.5847687,0.5789024,0.5224331,0.4888886,0.4613791,0.4500743,0.4207154,0.4122356,0.4155695,0.4176144,0.4325139,0.4167840,0.4009391,0.3799491,0.4014722,0.3847100,0.3778728,0.3837510,0.3884277,0.3992635,0.3976200,0.3821268,0.3932751,0.3884904,0.3995766,0.4099937,0.4188280,0.4494366,0.4568271,0.4663648,0.4767079,0.4902772,0.4892875,0.4962695,0.4825086,0.4807613,0.4946792,0.5072386,0.5216172,0.5443119,0.5420270,0.5639345,0.5646080,0.5811963,0.6306318,0.6350160,0.6432079,0.6179231,0.6084801,0.6185319,0.6259351,0.6207368,0.6187126,0.6366046,0.6229148
0.6302868,0.6509516,0.6474957,0.6474773,0.6191044,0.6012909,0.6120058,0.5828146,0.5789420,0.5553996,0.5569669,0.5657344,0.5635256,0.5226069,0.5279600,0.5206941,0.4939980,0.5019118,0.4702151,0.4522598,0.4189117,0.3852230,0.3594189,0.3276360,0.3072152,0.2834889,0.3051824,0.2838129,0.2916667,0.2894095,0.2613398,0.2565824,0.2413621,0.2585199,0.2429544,0.2369243,0.2159621,0.1985905,0.2031887,0.1779448,0.1683619,0.1580849,0.1654718,0.1567024,0.1743497,0.1649156,0.1638340,0.1821145,0.1871071,0.1957050,0.2032235,0.2120132,0.2230810,0.2358415,0.2465637,0.2756259,0.3150224,0.3332050,0.3704435,0.3564159,0.3553524,0.3583469,0.3696206,0.3504905,0.3545676,0.3669319,0.3697638,0.3833604,0.3699324,0.3875818,0.3948557,0.3918451,0.3945487,0.4115576,0.4509094,0.4539597,0.4717931,0.5000673,0.5089093,0.4945172,0.4803396,0.4867347,0.4801422,0.4524474,0.4734701,0.4765071,0.4759345,0.4713484,0.4833248,0.4689381,0.4563215,0.4446424,0.4396116,0.4441656,0.4590297,0.4890194,0.5056660,0.5086106,0.5151647,0.5267406,0.5240916,0.4995445,0.4997559,0.5244481,0.5276583,0.4897576,0.4550476,0.4129954,0.4058757,0.4178498,0.4439554,0.4470109,0.4514368,0.4608118,0.4369702,0.4498951,0.4635780,0.4648414,0.4686466,0.4457946,0.4653211,0.4770852,0.4642949,0.4618544,0.4516175,0.4219666,0.4016513,0.3823475,0.3541869,0.3418838,0.3198421,0.3056332,0.2770465,0.2208747,0.2079114,0.1878608,0.1665037,0.1374263,0.1562846,0.1656987,0.1722780,0.1930594,0.2022019,0.1860447,0.1899672,0.1983195,0.2252930,0.2522447,0.2634969,0.2437284,0.2521036,0.2647050,0.2477123,0.2355959,0.2398489,0.2833537,0.3001924,0.2935834,0.3215998,0.3618567,0.3870241,0.3979754,0.4204087,0.4347564,0.4634982,0.4893139,0.5056185,0.5645803,0.6288461,0.6591270,0.6732086,0.6886606,0.6974347,0.7029473,0.7381590,0.7549373,0.7589473,0.7846759,0.8066835,0.8185183,0.8607872,0.8634202,0.8486646,0.8214693,0.7807537,0.7404749,0.7093282,0.6726653,0.6684933,0.6248073,0.6029844,0.5830917,0.5620841,0.5595976,0.5813474,0.5843489,0.5642291,0.5488894,0.4961127,0.4766888,0.4652168,0.4382251,0.4430375,0.4355799,0.4341229,0.4355382,0.4362935,0.4311176,0.4102321,0.4314255,0.4082655,0.3771680,0.3897830,0.4197203,0.4152282,0.4021541,0.3873812,0.3925979,0.3979809,0.4094156,0.4069204,0.4130651,0.4377982,0.4633354,0.4923887,0.4964741,0.4931889,0.4896900,0.4995546,0.4875062,0.4818266,0.4917527,0.5067751,0.5287447,0.5432293,0.5564889,0.5554477,0.5668190,0.6017203,0.6260733,0.6510278,0.6478062,0.6326950,0.6274137,0.6472976,0.6310330,0.6218343,0.6363790,0.6304667,0.6215618
0.6490067,0.6631215,0.6466595,0.6445425,0.6241109,0.6272205,0.6193987,0.5964137,0.5865579,0.5788290,0.5709512,0.5563837,0.5619778,0.5343288,0.5246525,0.5310497,0.5027095,0.4943486,0.4590489,0.4594517,0.4417256,0.4142260,0.3982849,0.3472850,0.3228461,0.2968303,0.3171984,0.2862604,0.2882129,0.3110013,0.2952459,0.2734786,0.2437582,0.2430964,0.2330247,0.2397626,0.2306386,0.2324262,0.2325600,0.2200480,0.1876953,0.1797564,0.1866849,0.1717537,0.1926695,0.1924152,0.1971931,0.1947403,0.2271877,0.2041047,0.1991355,0.2233684,0.2268329,0.2253395,0.2299870,0.2555156,0.3028158,0.3366433,0.3650656,0.3454370,0.3642197,0.3690163,0.3620806,0.3594745,0.3571956,0.3741823,0.3836905,0.3859976,0.3799412,0.3861029,0.3938471,0.3969109,0.3954133,0.4274904,0.4525859,0.4631827,0.4933917,0.4929670,0.4902289,0.4790207,0.4986280,0.4936386,0.4726633,0.4513386,0.4563809,0.4550542,0.4627598,0.4421748,0.4643497,0.4689457,0.4692045,0.4629600,0.4609182,0.4789478,0.4920099,0.5039752,0.5225754,0.5088116,0.5082818,0.5256261,0.5302517,0.5275463,0.5179835,0.5193701,0.5110988,0.4904896,0.4566343,0.4213205,0.4249308,0.4249716,0.4633066,0.4734360,0.4836150,0.4725858,0.4549372,0.4343799,0.4583632,0.4900405,0.4740441,0.4713060,0.4598273,0.4902075,0.4798068,0.4553572,0.4358538,0.4081878,0.3926856,0.3766148,0.3476630,0.3377342,0.3115334,0.3025475,0.2525385,0.2362598,0.2087564,0.1858252,0.1585532,0.1525408,0.1594745,0.1528582,0.1590439,0.1806230,0.1849663,0.1830722,0.1944779,0.1902971,0.2075790,0.2414609,0.2461719,0.2458337,0.2337321,0.2272277,0.2129761,0.2207807,0.2295500,0.2664239,0.2915894,0.2939510,0.3174504,0.3530845,0.3667051,0.3750109,0.4109763,0.4244684,0.4654870,0.4764807,0.5009471,0.5634335,0.6090243,0.6204910,0.6473563,0.6532540,0.6584107,0.6814851,0.7061552,0.7416604,0.7389357,0.7499067,0.7855100,0.8089403,0.8317112,0.8492616,0.8431669,0.8028769,0.7589226,0.7370783,0.7019762,0.6573958,0.6351571,0.6051612,0.5892302,0.5778912,0.5842062,0.5888085,0.5875235,0.5756827,0.5667869,0.5358832,0.5087131,0.4778175,0.4578967,0.4572623,0.4596510,0.4589741,0.4481981,0.4528079,0.4562161,0.4354491,0.4352917,0.4278018,0.4330130,0.3983413,0.3794602,0.4000514,0.4073784,0.4027867,0.3994376,0.3944589,0.3892576,0.3867175,0.4065711,0.3984152,0.4209997,0.4609983,0.4918097,0.4976631,0.4918342,0.4937488,0.4798123,0.4872776,0.5076286,0.5316615,0.5276608,0.5468459,0.5477254,0.5631740,0.5510762,0.5517728,0.5815269,0.6313952,0.6702354,0.6612336,0.6530118,0.6558988,0.6485962,0.6697832,0.6556614,0.6500998,0.6492663,0.6539720
0.6490825,0.6593333,0.6453413,0.6460983,0.6281021,0.6296289,0.6312229,0.6162146,0.6136616,0.5884380,0.5828973,0.5815649,0.5502462,0.5357829,0.5453403,0.5442036,0.5285050,0.4910697,0.4686598,0.4682877,0.4668466,0.4344138,0.4053741,0.3592555,0.3428838,0.3373404,0.3544852,0.3237052,0.2978957,0.3073590,0.3220532,0.2928458,0.2743401,0.2533998,0.2429872,0.2424637,0.2135045,0.2264306,0.2319412,0.2261521,0.2241124,0.2026999,0.1794103,0.1706745,0.1968700,0.1858194,0.2005260,0.2293857,0.2416719,0.2465755,0.2381160,0.2364948,0.2495614,0.2279805,0.2409745,0.2557597,0.3131968,0.3427339,0.3581700,0.3539980,0.3585627,0.3737738,0.3737700,0.3633155,0.3591837,0.3660126,0.3443367,0.3570347,0.3700664,0.3654385,0.4029911,0.4111302,0.4087735,0.4326976,0.4714046,0.4712380,0.4889091,0.4852005,0.5040979,0.5090175,0.5071693,0.4794142,0.4697941,0.4540683,0.4484816,0.4519515,0.4629588,0.4413952,0.4578215,0.4612432,0.4646654,0.4710865,0.4662491,0.4967918,0.4944670,0.5190035,0.5177269,0.4965562,0.5036107,0.5304382,0.5257273,0.5355807,0.5237813,0.5177264,0.5131181,0.4830478,0.4472116,0.4283548,0.4279055,0.4582339,0.4917401,0.4975954,0.4963564,0.4773830,0.4423663,0.4536438,0.4851372,0.4998225,0.5119749,0.4820611,0.4617055,0.4763940,0.4560317,0.4363212,0.4278561,0.3987560,0.3840116,0.3468918,0.3215958,0.3087270,0.3019841,0.2865892,0.2473564,0.2231559,0.1938398,0.1873490,0.1638194,0.1585428,0.1491965,0.1553456,0.1731512,0.1664033,0.1942027,0.1892206,0.1875099,0.1974703,0.2190082,0.2374626,0.2369107,0.2108657,0.2071145,0.2142376,0.2052979,0.2173302,0.2338851,0.2480948,0.2729716,0.2877323,0.2960243,0.3470772,0.3711437,0.3642566,0.3979601,0.4255504,0.4473279,0.4668220,0.5105096,0.5488931,0.5771426,0.5889919,0.6177389,0.6083660,0.6031616,0.6352908,0.6607167,0.7008867,0.7107430,0.7404047,0.7574656,0.7737568,0.7997358,0.8094984,0.8164130,0.7746281,0.7410385,0.7116381,0.6936861,0.6567872,0.6261321,0.6067324,0.5901918,0.5820678,0.5924141,0.5915573,0.5676447,0.5450740,0.5272522,0.5012625,0.4962171,0.4850328,0.4517602,0.4560060,0.4521798,0.4412858,0.4478285,0.4376061,0.4415907,0.4411025,0.4225437,0.4124509,0.3988623,0.3853610,0.3836700,0.3633137,0.3752453,0.4092609,0.4300211,0.4159290,0.4055054,0.3859800,0.3886516,0.4096517,0.4359102,0.4481719,0.4680016,0.4948664,0.4882191,0.4810272,0.4673930,0.4902770,0.5009090,0.5281693,0.5507575,0.5565107,0.5438452,0.5606807,0.5647600,0.5721854,0.5924706,0.6191796,0.6669915,0.6798901,0.6800588,0.6683836,0.6754448,0.6740166,0.6873968,0.6766529,0.6736115,0.6739526
0.6710107,0.6839423,0.6631472,0.6573037,0.6581094,0.6698874,0.6461734,0.6123136,0.6112471,0.6299803,0.6164671,0.5901283,0.5741500,0.5611538,0.5683304,0.5551899,0.5328835,0.5170873,0.5065490,0.4709998,0.4706853,0.4373152,0.3964673,0.3815519,0.3738612,0.3707344,0.3657477,0.3466591,0.3253718,0.3260497,0.3020402,0.2888542,0.2685332,0.2457941,0.2475716,0.2601364,0.2408516,0.2536516,0.2469873,0.2366802,0.2375437,0.2187185,0.1980719,0.1970230,0.1897169,0.1998240,0.2076044,0.2377912,0.2684727,0.2708347,0.2476784,0.2573357,0.2674089,0.2450708,0.2513667,0.2811004,0.2982749,0.3302270,0.3681107,0.3603465,0.3619747,0.3623992,0.3498794,0.3716163,0.3654272,0.3558583,0.3450915,0.3505125,0.3529388,0.3540097,0.3744317,0.3869036,0.4134889,0.4348193,0.4838405,0.4994102,0.4964849,0.4849356,0.5077654,0.5164620,0.4977371,0.4906913,0.4706291,0.4513760,0.4578520,0.4551645,0.4548583,0.4618215,0.4551303,0.4583552,0.4728275,0.4445177,0.4605373,0.4758249,0.4843065,0.4898497,0.4902870,0.4866081,0.5041807,0.5032512,0.5041132,0.4993910,0.5084037,0.5081351,0.5026114,0.4938469,0.4497936,0.4511413,0.4541810,0.4664157,0.5046633,0.4802043,0.4695808,0.4445043,0.4436710,0.4804463,0.5037099,0.5001547,0.4973488,0.4888193,0.4825158,0.4753280,0.4439912,0.4195848,0.3955989,0.3906680,0.3927863,0.3577836,0.3256135,0.3064920,0.2817563,0.2769645,0.2619801,0.2392230,0.2307378,0.2183375,0.1783520,0.1774509,0.1772177,0.1830384,0.1822867,0.1753853,0.1885409,0.1983937,0.1987451,0.1893881,0.2109065,0.1980787,0.1914468,0.1782488,0.1878053,0.1770947,0.1773644,0.1934781,0.2023353,0.2348977,0.2594511,0.2842740,0.3003528,0.3539486,0.3656116,0.3712654,0.3909598,0.4221239,0.4431818,0.4772036,0.5090695,0.5270596,0.5651996,0.5724929,0.5703273,0.5910058,0.5967638,0.6282639,0.6674676,0.6873378,0.7162550,0.7317118,0.7255003,0.7498165,0.7398021,0.7621187,0.7674916,0.7338230,0.7148738,0.6993428,0.6584985,0.6501982,0.6289977,0.5894552,0.5810159,0.5953237,0.5970250,0.5782003,0.5511756,0.5270478,0.4853434,0.4802472,0.4833551,0.4731017,0.4665845,0.4493846,0.4619867,0.4429332,0.4279598,0.4319609,0.4405286,0.4367240,0.4124390,0.3863445,0.3581520,0.3748761,0.3696136,0.3615589,0.3811168,0.4025429,0.4330247,0.4335656,0.4198890,0.4074888,0.4100798,0.4166941,0.4258782,0.4424984,0.4736347,0.4800401,0.4805563,0.4655271,0.4694805,0.4785675,0.4991380,0.5120049,0.5486813,0.5434718,0.5314128,0.5582785,0.5630897,0.5818603,0.6112022,0.6257172,0.6684975,0.6899758,0.7015223,0.6869121,0.6850195,0.7090539,0.6979218,0.6778627,0.6679604,0.6940930
0.6893993,0.6992952,0.6882708,0.6938066,0.6882302,0.6806618,0.6502060,0.6486897,0.6302067,0.6286572,0.6185603,0.6170630,0.5866498,0.5755429,0.5874633,0.5532360,0.5418184,0.5303199,0.5133732,0.4960532,0.4524444,0.4076065,0.3774485,0.3846081,0.3869331,0.3679517,0.3640166,0.3760961,0.3517945,0.3229053,0.2887659,0.2949134,0.2641462,0.2565112,0.2608356,0.2769313,0.2641292,0.2726320,0.2669586,0.2614164,0.2503926,0.2285700,0.2098399,0.2218414,0.2040286,0.1804108,0.2109197,0.2316682,0.2802124,0.2815488,0.2729008,0.2797750,0.2757615,0.2870055,0.2791805,0.2849665,0.3190427,0.3262432,0.3579775,0.3524372,0.3361894,0.3243260,0.3326698,0.3548784,0.3447418,0.3361722,0.3711061,0.3827747,0.3740434,0.3842339,0.3879502,0.3930986,0.4288810,0.4541936,0.4952799,0.4888893,0.4822590,0.4946846,0.5175928,0.5271714,0.5165792,0.5087651,0.4911108,0.4774375,0.4637525,0.4313617,0.4220999,0.4331033,0.4518314,0.4364414,0.4451700,0.4174480,0.4407179,0.4506332,0.4724652,0.4629603,0.4888255,0.4894334,0.4916690,0.4776631,0.4835569,0.5091381,0.5004554,0.5138448,0.5081396,0.4847494,0.4669489,0.4524431,0.4756969,0.4793988,0.4903931,0.4831996,0.4564419,0.4558048,0.4477906,0.4613209,0.4699698,0.4877723,0.4893123,0.4948410,0.4750443,0.4753329,0.4574365,0.4270355,0.4194331,0.3866833,0.3771957,0.3707303,0.3265031,0.3039837,0.2846665,0.2630173,0.2683805,0.2266475,0.2144599,0.2078457,0.2064104,0.1895291,0.1952410,0.2030664,0.2034114,0.1768247,0.1946878,0.1824057,0.1708933,0.1547791,0.1588297,0.1782778,0.1873539,0.1717118,0.1568453,0.1536526,0.1714874,0.1941821,0.1923367,0.2242555,0.2640179,0.2992814,0.3141338,0.3341120,0.3540959,0.3850694,0.3910639,0.3998121,0.4199895,0.4645037,0.4699874,0.5101842,0.5288259,0.5421449,0.5592774,0.5688463,0.6120318,0.6407113,0.6751475,0.6813381,0.7044759,0.7363248,0.7263894,0.7187085,0.7048509,0.7355281,0.7497499,0.7186608,0.6888071,0.6504244,0.6383880,0.6108490,0.6087602,0.5880352,0.5642796,0.5827696,0.5819117,0.5644271,0.5200385,0.4804699,0.4719703,0.4653708,0.4623634,0.4555814,0.4728506,0.4690725,0.4530360,0.4475820,0.4411274,0.4243427,0.4345201,0.4122638,0.4021586,0.3846476,0.3669986,0.3698115,0.3703026,0.3676661,0.3666312,0.4196730,0.4561715,0.4516090,0.4208563,0.4065599,0.4180309,0.4323254,0.4285727,0.4302749,0.4464047,0.4784737,0.4721569,0.4704875,0.4695968,0.4592210,0.4673440,0.5039102,0.5319801,0.5417243,0.5357583,0.5426360,0.5684705,0.6239182,0.6557002,0.6575578,0.6862690,0.7047179,0.7182284,0.7090547,0.7164615,0.7207709,0.7196993,0.7059134,0.7024432,0.7060812
0.7281429,0.7090203,0.6991283,0.6792957,0.6895464,0.6905088,0.6618214,0.6644391,0.6762045,0.6632278,0.6390652,0.6210185,0.6098305,0.6113248,0.6269737,0.5926039,0.5775734,0.5297303,0.5053066,0.4977580,0.4458557,0.4147249,0.3789614,0.3882344,0.3946503,0.3757699,0.3935283,0.3914927,0.3578945,0.3298178,0.2955301,0.2965494,0.2746439,0.2584914,0.2578269,0.2760693,0.2680793,0.2583359,0.2503721,0.2681055,0.2651058,0.2583145,0.2314128,0.2246109,0.2117590,0.1977400,0.2125666,0.2412035,0.2781214,0.2832374,0.2976197,0.2843911,0.3077902,0.3035446,0.3250368,0.3228118,0.3376458,0.3356728,0.3473772,0.3322165,0.3319978,0.3295844,0.3251928,0.3536662,0.3479347,0.3601681,0.3695636,0.3879988,0.3674296,0.3657421,0.3765476,0.4073928,0.4357683,0.4665643,0.4998714,0.4999194,0.4918974,0.4724165,0.4861784,0.4979744,0.5117643,0.5052000,0.5140773,0.5065364,0.5019697,0.4666501,0.4354629,0.4332301,0.4360186,0.4393863,0.4384209,0.4174169,0.4301138,0.4437582,0.4375062,0.4477148,0.4839280,0.5004488,0.4851465,0.4962152,0.5138438,0.5130204,0.5049276,0.4982069,0.4977375,0.4742900,0.4794827,0.4863063,0.5017082,0.5031596,0.5002211,0.4877857,0.4670561,0.4523381,0.4511972,0.4506760,0.4690417,0.4743553,0.4780037,0.4766849,0.4601368,0.4737263,0.4400898,0.4297457,0.4087163,0.3880636,0.3863664,0.3593728,0.3293699,0.3071662,0.3015399,0.2740002,0.2389646,0.2119365,0.2073218,0.2117958,0.2063456,0.2094351,0.2228641,0.2145097,0.2118355,0.1771129,0.1798516,0.1861395,0.1786081,0.1640882,0.1575468,0.1567361,0.1588907,0.1666770,0.1433521,0.1490948,0.1772119,0.2080721,0.2094939,0.2349779,0.2543327,0.2913053,0.2935508,0.3218961,0.3554226,0.3952508,0.4162926,0.3981282,0.4188439,0.4395348,0.4344098,0.4611787,0.5055569,0.5303572,0.5581909,0.5836932,0.5997297,0.6155205,0.6701530,0.7030490,0.7249389,0.7397801,0.7348765,0.7217452,0.7005506,0.7083768,0.7199790,0.7110771,0.6687274,0.6191012,0.5945718,0.5856603,0.5877183,0.5814375,0.5604665,0.5478763,0.5455545,0.5332309,0.5154425,0.4794373,0.4650994,0.4490283,0.4566789,0.4520623,0.4580041,0.4863884,0.4744542,0.4454108,0.4522857,0.4357434,0.4103603,0.3985672,0.4008186,0.3885438,0.3815269,0.3769813,0.3686083,0.3595907,0.3765579,0.4219815,0.4411583,0.4497876,0.4273317,0.4053401,0.4100966,0.4200568,0.4212540,0.4061146,0.4188922,0.4586053,0.4361927,0.4493855,0.4583642,0.4670897,0.4540528,0.5003830,0.5182827,0.5307843,0.5306566,0.5506808,0.6026772,0.6414102,0.6819696,0.6891572,0.7088480,0.7335554,0.7461310,0.7385033,0.7328105,0.7350666,0.7425068,0.7228413,0.7271101,0.7389292
0.7216538,0.7002917,0.6944801,0.7007670,0.6828933,0.6877066,0.6787047,0.6845165,0.6906440,0.6771523,0.6605747,0.6449955,0.6378000,0.6387123,0.6567124,0.6231818,0.5930698,0.5311650,0.5183636,0.4804635,0.4601118,0.4368870,0.3990452,0.3901086,0.4052302,0.4010184,0.4034731,0.4013066,0.3883336,0.3455963,0.3326113,0.3124529,0.2914385,0.2666849,0.2463010,0.2707954,0.2766163,0.2587096,0.2646025,0.2806408,0.2841877,0.2746361,0.2588647,0.2273752,0.2125324,0.2193216,0.2275110,0.2538985,0.2760506,0.3201646,0.3198496,0.3159370,0.3327090,0.3324749,0.3336866,0.3425035,0.3620098,0.3482611,0.3546067,0.3376984,0.3372569,0.3530032,0.3599178,0.3784482,0.3709052,0.3768247,0.3726291,0.3678705,0.3739977,0.3833524,0.3775716,0.4222644,0.4619884,0.4756509,0.4951430,0.5011010,0.4868778,0.4845905,0.4722072,0.4998038,0.5005219,0.4799751,0.4846039,0.5080264,0.5066063,0.4970419,0.4825036,0.4480083,0.4482704,0.4406740,0.4238499,0.4143924,0.4283711,0.4271139,0.4244843,0.4361934,0.4611701,0.4966474,0.5119182,0.5068612,0.5294973,0.5166212,0.4981075,0.4996189,0.5002270,0.4937290,0.4996420,0.4915943,0.4824935,0.5073154,0.5273980,0.5041225,0.4941028,0.4676788,0.4667994,0.4636574,0.4797458,0.4805162,0.4872045,0.4857932,0.4666020,0.4518009,0.4376017,0.4325340,0.4100508,0.3944646,0.3620725,0.3530120,0.3217252,0.2962427,0.2854071,0.2531413,0.2304859,0.1978491,0.1796526,0.2078418,0.2006295,0.2190952,0.2080490,0.2208522,0.2408839,0.1954719,0.1616021,0.1647854,0.1614902,0.1684175,0.1534894,0.1396412,0.1517059,0.1420987,0.1369789,0.1465737,0.1680074,0.1831767,0.2028412,0.2304337,0.2585581,0.2816764,0.2798008,0.2976805,0.3208369,0.3610784,0.3894800,0.4024382,0.3996978,0.4025024,0.4055862,0.4451910,0.4855187,0.5174249,0.5505835,0.5874179,0.6149115,0.6133209,0.6647114,0.6980214,0.7183391,0.7077186,0.6905952,0.7010840,0.6879354,0.6839985,0.7121985,0.6826716,0.6342057,0.6083469,0.5818575,0.5636484,0.5466084,0.5486745,0.5559742,0.5337362,0.5205536,0.4907859,0.5000792,0.4874441,0.4697397,0.4278539,0.4404328,0.4494189,0.4456996,0.4613014,0.4515190,0.4540864,0.4345722,0.4118263,0.3854167,0.3743349,0.3793254,0.4072574,0.3913449,0.3834788,0.3762372,0.3718685,0.4025582,0.4217015,0.4523911,0.4473838,0.4353236,0.4295995,0.4105585,0.4230610,0.4139943,0.4084818,0.4204825,0.4466662,0.4307036,0.4464914,0.4414891,0.4456713,0.4498440,0.4930095,0.5248750,0.5560561,0.5601151,0.5861471,0.6375236,0.6746971,0.7041810,0.7181321,0.7551509,0.7671702,0.7543160,0.7654869,0.7308532,0.7410662,0.7495785,0.7390833,0.7546800,0.7784637
0.7216115,0.7013373,0.7006448,0.6885428,0.6905166,0.6780210,0.6775797,0.6849828,0.6916560,0.6766108,0.6486414,0.6240603,0.6276246,0.6416971,0.6456905,0.6421164,0.6220932,0.5603467,0.5373771,0.5031646,0.4879879,0.4697564,0.4362621,0.4106182,0.4168367,0.4244989,0.4247092,0.4143948,0.3870972,0.3488196,0.3330269,0.3193643,0.3038959,0.2916346,0.2757092,0.2691516,0.2783185,0.2873766,0.2964803,0.2828943,0.2977305,0.2878176,0.2709194,0.2528119,0.2308959,0.2275121,0.2436881,0.2771459,0.2974939,0.3235646,0.3130631,0.3329547,0.3412657,0.3481499,0.3391805,0.3443494,0.3692146,0.3675885,0.3696912,0.3507073,0.3589477,0.3739015,0.3923144,0.4030440,0.3774376,0.3721476,0.3896594,0.3938524,0.4089069,0.3960443,0.3948168,0.4214404,0.4424481,0.4722111,0.5164975,0.5196086,0.4973245,0.4854489,0.4674014,0.4807162,0.4945798,0.4669452,0.4726618,0.5070957,0.5192436,0.4951078,0.4986659,0.4823482,0.4475785,0.4512248,0.4219258,0.4078331,0.4188218,0.4219333,0.4267628,0.4161489,0.4298396,0.4720558,0.4867646,0.5204331,0.5136022,0.5180802,0.5319939,0.5131518,0.4905829,0.4972539,0.4897694,0.4947726,0.4764857,0.5094274,0.5389643,0.5093397,0.4959401,0.4872774,0.4904151,0.4621224,0.4670189,0.4866067,0.5095099,0.4934251,0.4893175,0.4644173,0.4584765,0.4278351,0.4183112,0.3938809,0.3692886,0.3523202,0.3302720,0.3118807,0.2708761,0.2425876,0.2241337,0.2084372,0.1970440,0.2032715,0.1883356,0.2130733,0.2030726,0.2172151,0.2162982,0.1952847,0.1576701,0.1540437,0.1569033,0.1591379,0.1253519,0.1134247,0.1226248,0.1301324,0.1446596,0.1539659,0.1623932,0.1884839,0.2015436,0.2302445,0.2708189,0.2808731,0.2801056,0.3087474,0.3246692,0.3564340,0.3640338,0.3753478,0.3950040,0.3654444,0.3853921,0.4032096,0.4681461,0.5323515,0.5568074,0.5940647,0.6050453,0.6266684,0.6748459,0.6929595,0.7138226,0.6986750,0.6644800,0.6645383,0.6730001,0.6667844,0.6989420,0.6739000,0.6494246,0.6221350,0.5742002,0.5647289,0.5370801,0.5479080,0.5380175,0.5172274,0.5084656,0.4796904,0.4876819,0.4887148,0.4855010,0.4523598,0.4617259,0.4567676,0.4749553,0.4482908,0.4428983,0.4499768,0.4298513,0.4072028,0.3959029,0.3948947,0.3887040,0.3898511,0.3844693,0.3869560,0.3781052,0.3862515,0.4056234,0.4028371,0.4181330,0.4316747,0.4314413,0.4085194,0.4295065,0.4197180,0.4001217,0.4165642,0.4031284,0.4259443,0.4311269,0.4161961,0.4162008,0.4514030,0.4611373,0.4953477,0.5440592,0.5593010,0.5826928,0.6285279,0.6517108,0.6878973,0.7099554,0.7394093,0.7560866,0.7681387,0.7669612,0.7790289,0.7624129,0.7430834,0.7615697,0.7657400,0.7746830,0.7685963
0.7587354,0.7151000,0.7189015,0.6990246,0.6830292,0.6714117,0.6940299,0.7031413,0.6979152,0.6816317,0.6485289,0.6412076,0.6359159,0.6579959,0.6587778,0.6319842,0.6181065,0.5843406,0.5498600,0.5249601,0.5115539,0.5014356,0.4844461,0.4571202,0.4401887,0.4250770,0.4160966,0.4055644,0.3811573,0.3734769,0.3825680,0.3578185,0.3538546,0.3227442,0.2879230,0.2990825,0.3095835,0.3234596,0.3110238,0.2959016,0.3157913,0.3125875,0.2733257,0.2563003,0.2278225,0.2528285,0.2708032,0.2927910,0.3179278,0.3273057,0.3230903,0.3270406,0.3403522,0.3562561,0.3461994,0.3571988,0.3722176,0.3825340,0.3650363,0.3487126,0.3714273,0.4180065,0.4062845,0.4004159,0.4019067,0.4092255,0.3823405,0.4028503,0.4117327,0.4290735,0.4297965,0.4335982,0.4411857,0.4839847,0.5228967,0.5063786,0.5151643,0.5297097,0.5050283,0.4847365,0.4581610,0.4607933,0.4739208,0.4863610,0.5004853,0.5058975,0.4945934,0.4946291,0.4746459,0.4661263,0.4414196,0.4382640,0.4232426,0.4046975,0.4215949,0.4225742,0.4244546,0.4588644,0.4766778,0.4795880,0.5014167,0.5276498,0.5494281,0.5189494,0.4934760,0.4924276,0.4842070,0.4934743,0.5008162,0.5062797,0.5378861,0.5321234,0.5047032,0.5056587,0.4950311,0.4757092,0.4940628,0.5008571,0.4980239,0.4832743,0.4841847,0.4695841,0.4531149,0.4452723,0.4319615,0.4082656,0.3858450,0.3320483,0.3338562,0.3083908,0.2658371,0.2635562,0.2384687,0.2299868,0.2331272,0.2080352,0.1992404,0.2101349,0.1943529,0.1996312,0.1820187,0.1845450,0.1808827,0.1631379,0.1534317,0.1481417,0.1294369,0.1138309,0.1116047,0.1312321,0.1399523,0.1482424,0.1580881,0.1834575,0.1860842,0.2169294,0.2556144,0.2764803,0.2818455,0.3018108,0.3263026,0.3336284,0.3284378,0.3636383,0.3668190,0.3465429,0.3787609,0.3923949,0.4566711,0.5171583,0.5333855,0.5755180,0.6071787,0.6445099,0.6625510,0.6640677,0.6766965,0.6597960,0.6319425,0.6391872,0.6541598,0.6762070,0.6971316,0.6646294,0.6448655,0.6346377,0.5863134,0.5561914,0.5122968,0.5109481,0.4915162,0.4801696,0.4751541,0.4695152,0.4944520,0.4903545,0.5033146,0.4722801,0.4706120,0.4910716,0.4906215,0.4776052,0.4465612,0.4477326,0.4310997,0.4170898,0.4031796,0.3974487,0.3864871,0.3836961,0.3710660,0.3499655,0.3626360,0.3671443,0.3842472,0.3978777,0.3900348,0.3900117,0.3871830,0.3906917,0.4164989,0.4057505,0.3931268,0.4064233,0.4043454,0.4058158,0.4083855,0.3964543,0.4110051,0.4628583,0.4918447,0.5197985,0.5568336,0.5749518,0.5947135,0.6271434,0.6644280,0.6902535,0.7076302,0.7135979,0.7493010,0.7589239,0.7504174,0.7531722,0.7380707,0.7393943,0.7604751,0.7800222,0.7996201,0.8094360
