0.7425682,0.7403397,0.7355982,0.7295884,0.7234698,0.7179626,0.7132203,0.7087305,0.7030055,0.6947949,0.6840349,0.6717110,0.6593898,0.6487361,0.6410419,0.6368583,0.6358123,0.6366247,0.6374001,0.6362055,0.6312824,0.6217167,0.6080175,0.5917849,0.5752334,0.5608598,0.5509313,0.5468261,0.5483965,0.5539762,0.5616991,0.5705752,0.5801403,0.5902051,0.6007940,0.6120871,0.6242855,0.6375813,0.6522303,0.6688738,0.6877382,0.7078112,0.7270791,0.7431328,0.7537869,0.7575976,0.7542076,0.7444328,0.7301571,0.7140695,0.6989407,0.6867553,0.6787062,0.6753049,0.6762593,0.6805616,0.6868401,0.6938448,0.7008766,0.7078200,0.7149068,0.7219300,0.7283153,0.7341011,0.7396436,0.7451727,0.7507639,0.7563755,0.7618439,0.7669638,0.7715128,0.7750618,0.7775017,0.7795006,0.7823024,0.7870038,0.7939042,0.8022456,0.8104053,0.8165201,0.8191584,0.8178175,0.8130467,0.8055845,0.7958011,0.7841628,0.7714522,0.7585385,0.7461748,0.7349111,0.7249960,0.7165475,0.7101245,0.7068148,0.7075927,0.7127155,0.7214772,0.7323763,0.7435093,0.7530408,0.7596436,0.7628025,0.7630118,0.7616072,0.7596577,0.7576120,0.7555432,0.7530405,0.7494195,0.7440553,0.7366506,0.7274557,0.7174557,0.7085793,0.7028239,0.7012602,0.7036773,0.7088336,0.7149673,0.7204973,0.7246126,0.7274894,0.7298904,0.7328694,0.7379807,0.7463784,0.7579275,0.7715256,0.7854774,0.7978975,0.8071577,0.8122886,0.8132200,0.8106814,0.8056427,0.7987458,0.7905339,0.7817453,0.7731989,0.7656092,0.7594566,0.7549624,0.7521656,0.7510674,0.7516687,0.7538475,0.7575368,0.7626745,0.7691504,0.7766193,0.7848091,0.7938231,0.8040768,0.8157623,0.8284588,0.8408187,0.8509580,0.8575285,0.8603668,0.8601783,0.8581829,0.8557079,0.8537509,0.8526886,0.8523333,0.8524510,0.8532408,0.8551454,0.8582662,0.8621341,0.8657639,0.8679893,0.8678550,0.8648791,0.8590930,0.8509473,0.8412667,0.8312870,0.8228371,0.8179997,0.8180774,0.8231801,0.8322248,0.8432695,0.8540237,0.8624525,0.8676726,0.8705262,0.8727136,0.8752694,0.8782600,0.8813107,0.8838288,0.8848660,0.8833511,0.8786440,0.8708369,0.8609057,0.8505153,0.8415566,0.8352951,0.8322961,0.8325050,0.8352693,0.8395579,0.8443180,0.8488164,0.8526242,0.8551366,0.8559433,0.8549581,0.8522380,0.8479610,0.8424049,0.8358969,0.8289125,0.8220789,0.8160011,0.8111197,0.8075695,0.8052921,0.8040467,0.8032203,0.8019360,0.7993308,0.7947456,0.7878823,0.7789313,0.7686060,0.7577983,0.7475502,0.7390191,0.7330688,0.7303165,0.7310573,0.7350642,0.7417027,0.7500071,0.7585971,0.7659447,0.7703049,0.7702597,0.7652574,0.7560499,0.7448409,0.7347393,0.7287626,0.7288827,0.7352947,0.7464097
0.7522178,0.7493403,0.7434558,0.7357523,0.7274829,0.7196402,0.7127005,0.7064697,0.6995891,0.6906352,0.6794969,0.6672676,0.6555779,0.6460312,0.6397339,0.6369637,0.6370413,0.6385370,0.6398014,0.6392496,0.6352229,0.6268976,0.6147585,0.6002845,0.5855306,0.5728045,0.5642143,0.5610825,0.5634225,0.5697392,0.5781200,0.5874395,0.5970692,0.6067035,0.6163436,0.6262036,0.6366367,0.6480812,0.6609474,0.6758581,0.6930950,0.7117453,0.7299632,0.7454901,0.7562091,0.7606242,0.7581463,0.7493200,0.7358517,0.7203293,0.7055760,0.6939020,0.6867168,0.6846245,0.6873930,0.6939564,0.7027889,0.7124486,0.7220461,0.7312290,0.7399447,0.7478944,0.7545891,0.7600414,0.7644270,0.7679185,0.7706579,0.7727508,0.7742945,0.7754051,0.7762902,0.7769616,0.7774676,0.7784330,0.7809417,0.7857934,0.7929059,0.8012143,0.8089682,0.8143060,0.8157505,0.8128232,0.8063582,0.7977232,0.7878370,0.7774044,0.7671531,0.7575357,0.7486505,0.7403270,0.7322654,0.7244384,0.7176872,0.7133652,0.7123576,0.7148343,0.7202303,0.7273573,0.7347203,0.7408996,0.7448886,0.7463248,0.7455725,0.7436036,0.7413744,0.7395737,0.7384426,0.7375639,0.7360505,0.7329249,0.7275243,0.7197947,0.7104525,0.7012006,0.6941599,0.6907892,0.6913678,0.6952086,0.7011383,0.7080308,0.7151257,0.7220880,0.7288368,0.7357809,0.7440220,0.7545976,0.7674301,0.7813739,0.7948007,0.8060205,0.8137229,0.8173054,0.8170203,0.8137467,0.8081992,0.8005364,0.7910990,0.7806245,0.7700833,0.7604392,0.7524608,0.7466449,0.7432445,0.7423507,0.7439813,0.7479820,0.7539707,0.7613750,0.7693668,0.7771796,0.7845641,0.7919518,0.8000651,0.8094355,0.8200744,0.8311158,0.8409111,0.8480108,0.8519912,0.8532849,0.8527933,0.8514927,0.8500868,0.8489042,0.8480671,0.8477921,0.8484882,0.8507232,0.8546004,0.8594895,0.8642009,0.8674300,0.8681713,0.8659629,0.8608983,0.8534744,0.8444248,0.8348376,0.8266619,0.8220299,0.8221111,0.8268244,0.8349858,0.8446772,0.8537618,0.8604172,0.8638816,0.8649817,0.8655944,0.8670241,0.8696047,0.8733549,0.8777327,0.8815507,0.8834099,0.8821298,0.8772105,0.8691883,0.8594577,0.8499273,0.8421228,0.8368075,0.8342285,0.8341365,0.8359418,0.8390255,0.8428241,0.8466047,0.8493732,0.8506541,0.8502787,0.8480860,0.8440584,0.8383841,0.8314961,0.8241581,0.8172554,0.8115513,0.8075579,0.8055174,0.8053721,0.8067069,0.8087081,0.8102915,0.8103083,0.8077876,0.8021641,0.7934576,0.7823575,0.7700254,0.7578127,0.7471192,0.7389760,0.7341550,0.7329853,0.7353404,0.7407047,0.7480483,0.7559751,0.7630993,0.7678464,0.7689748,0.7660777,0.7597197,0.7516832,0.7445873,0.7409808,0.7424657,0.7490275,0.7590502
0.7595068,0.7555901,0.7481962,0.7384757,0.7277880,0.7173587,0.7080134,0.6999629,0.6921563,0.6831190,0.6725038,0.6613661,0.6512841,0.6437120,0.6394935,0.6385170,0.6397296,0.6415484,0.6425597,0.6416407,0.6376479,0.6301042,0.6195620,0.6073823,0.5953572,0.5854314,0.5793380,0.5781652,0.5818761,0.5892064,0.5983847,0.6082391,0.6180089,0.6272814,0.6359824,0.6443750,0.6530006,0.6625077,0.6734299,0.6862348,0.7011136,0.7173068,0.7332864,0.7471285,0.7569341,0.7611486,0.7590495,0.7510942,0.7388438,0.7247099,0.7114097,0.7013441,0.6960842,0.6961520,0.7012237,0.7101657,0.7213535,0.7332577,0.7449172,0.7558027,0.7655120,0.7734898,0.7795299,0.7837933,0.7864783,0.7877533,0.7877803,0.7867712,0.7850108,0.7828413,0.7806999,0.7789558,0.7778142,0.7778557,0.7799510,0.7846109,0.7914944,0.7993888,0.8065205,0.8109817,0.8112377,0.8067646,0.7985674,0.7885241,0.7781838,0.7685622,0.7603366,0.7536045,0.7478672,0.7422828,0.7361274,0.7293448,0.7227871,0.7178156,0.7154019,0.7156182,0.7178924,0.7212502,0.7245916,0.7269757,0.7278497,0.7271568,0.7252945,0.7229310,0.7208403,0.7198799,0.7203578,0.7217327,0.7228423,0.7223586,0.7192637,0.7132159,0.7047351,0.6953161,0.6871697,0.6821534,0.6810707,0.6838558,0.6899534,0.6985859,0.7088784,0.7198886,0.7309023,0.7416712,0.7526662,0.7646934,0.7778483,0.7910945,0.8029742,0.8120929,0.8175070,0.8190125,0.8172089,0.8131012,0.8071608,0.7991916,0.7891884,0.7777733,0.7659730,0.7549350,0.7456565,0.7388389,0.7348788,0.7339586,0.7361177,0.7411897,0.7486298,0.7573977,0.7661920,0.7741402,0.7811044,0.7876259,0.7945538,0.8026384,0.8121734,0.8226982,0.8328352,0.8410831,0.8467313,0.8498701,0.8509922,0.8506843,0.8495210,0.8480187,0.8467564,0.8461882,0.8467977,0.8492133,0.8535504,0.8590983,0.8645545,0.8685092,0.8698897,0.8682425,0.8637548,0.8570580,0.8489528,0.8403942,0.8331432,0.8291237,0.8292965,0.8334045,0.8402277,0.8479602,0.8547012,0.8589308,0.8601471,0.8592325,0.8580472,0.8579880,0.8598307,0.8639555,0.8698437,0.8761513,0.8810422,0.8827762,0.8803269,0.8738621,0.8645965,0.8544393,0.8451756,0.8378201,0.8329173,0.8306510,0.8310006,0.8336695,0.8379490,0.8425513,0.8461101,0.8479607,0.8479174,0.8457560,0.8413781,0.8349832,0.8271626,0.8189599,0.8115546,0.8059297,0.8026800,0.8020095,0.8038810,0.8078692,0.8130131,0.8179465,0.8211590,0.8213098,0.8175237,0.8096133,0.7982055,0.7846715,0.7707117,0.7579661,0.7476177,0.7404742,0.7369428,0.7370863,0.7404748,0.7461540,0.7529238,0.7595604,0.7646860,0.7671372,0.7665210,0.7631753,0.7583793,0.7541714,0.7525709,0.7547114,0.7603670,0.7681792
0.7637675,0.7586443,0.7496881,0.7380381,0.7251031,0.7123057,0.7008308,0.6912862,0.6830147,0.6745948,0.6653723,0.6561987,0.6484841,0.6434354,0.6415232,0.6422363,0.6442384,0.6458980,0.6460795,0.6440764,0.6394236,0.6321173,0.6229621,0.6133033,0.6046486,0.5984534,0.5958593,0.5974708,0.6030649,0.6115395,0.6214747,0.6317836,0.6416282,0.6504921,0.6582847,0.6653491,0.6723571,0.6800951,0.6891761,0.6998473,0.7120874,0.7252454,0.7381883,0.7494518,0.7573209,0.7603170,0.7578568,0.7504363,0.7395152,0.7273240,0.7163662,0.7088961,0.7064581,0.7094177,0.7172127,0.7285748,0.7418179,0.7554149,0.7684049,0.7801285,0.7899639,0.7971764,0.8017415,0.8041391,0.8047165,0.8036713,0.8012096,0.7976484,0.7934172,0.7889710,0.7847671,0.7813102,0.7789767,0.7783371,0.7800630,0.7844512,0.7910183,0.7984877,0.8050305,0.8086734,0.8078375,0.8019489,0.7920680,0.7804527,0.7692468,0.7597710,0.7526850,0.7477873,0.7441209,0.7404416,0.7358509,0.7303112,0.7244436,0.7193683,0.7160239,0.7144680,0.7141151,0.7141310,0.7137180,0.7123647,0.7099914,0.7069483,0.7038449,0.7012383,0.6997316,0.7001562,0.7027382,0.7067511,0.7107491,0.7130719,0.7123926,0.7081404,0.7007143,0.6915051,0.6827397,0.6765980,0.6743748,0.6766044,0.6832170,0.6936062,0.7066576,0.7210552,0.7356187,0.7494416,0.7623360,0.7748424,0.7872406,0.7987626,0.8082312,0.8146059,0.8173489,0.8166607,0.8133658,0.8084025,0.8020448,0.7939832,0.7838921,0.7721884,0.7599154,0.7483116,0.7385096,0.7313279,0.7272052,0.7262864,0.7285796,0.7339782,0.7419580,0.7512637,0.7604775,0.7687218,0.7758279,0.7823409,0.7891267,0.7969925,0.8063848,0.8171182,0.8281213,0.8378908,0.8454395,0.8504349,0.8528541,0.8530188,0.8515973,0.8495492,0.8478447,0.8470566,0.8475874,0.8500428,0.8545435,0.8603522,0.8661334,0.8704361,0.8721682,0.8709094,0.8669896,0.8611945,0.8543442,0.8472762,0.8413984,0.8382433,0.8385418,0.8418974,0.8471045,0.8525378,0.8565795,0.8580320,0.8566899,0.8535896,0.8504268,0.8486485,0.8495246,0.8537334,0.8607895,0.8690588,0.8762791,0.8802687,0.8795819,0.8740949,0.8649889,0.8542284,0.8438128,0.8350090,0.8286697,0.8255257,0.8259458,0.8296236,0.8353969,0.8414664,0.8461692,0.8486134,0.8485982,0.8460156,0.8407862,0.8331964,0.8240377,0.8146195,0.8063804,0.8005196,0.7977466,0.7982436,0.8018919,0.8083068,0.8164915,0.8248506,0.8314991,0.8346609,0.8330787,0.8263510,0.8150875,0.8008024,0.7855286,0.7711216,0.7588120,0.7493906,0.7433872,0.7409886,0.7419365,0.7455632,0.7508986,0.7568738,0.7623178,0.7661009,0.7677034,0.7671769,0.7652675,0.7633630,0.7627930,0.7642441,0.7675881,0.7720944
0.7651203,0.7589446,0.7487435,0.7356085,0.7209841,0.7064923,0.6935995,0.6832282,0.6751264,0.6679788,0.6608421,0.6542294,0.6492713,0.6468101,0.6469274,0.6488020,0.6509262,0.6518171,0.6506291,0.6470429,0.6412310,0.6337744,0.6257446,0.6185613,0.6135225,0.6115909,0.6132250,0.6183313,0.6262529,0.6358978,0.6463006,0.6566610,0.6662272,0.6745184,0.6814730,0.6874720,0.6932392,0.6996102,0.7071939,0.7160436,0.7258294,0.7359353,0.7455895,0.7537047,0.7587866,0.7597111,0.7561931,0.7488587,0.7391704,0.7291692,0.7210628,0.7168019,0.7177043,0.7239073,0.7345207,0.7480731,0.7628586,0.7774237,0.7908387,0.8024300,0.8114993,0.8173930,0.8202319,0.8205679,0.8189345,0.8156642,0.8110441,0.8054839,0.7995321,0.7937466,0.7885404,0.7842447,0.7812954,0.7803404,0.7819418,0.7862708,0.7927527,0.8000292,0.8061908,0.8092025,0.8074748,0.8004249,0.7890604,0.7758722,0.7634328,0.7533005,0.7461223,0.7414983,0.7383272,0.7353374,0.7317200,0.7273162,0.7224400,0.7178376,0.7142227,0.7116206,0.7093961,0.7067976,0.7032653,0.6986490,0.6932974,0.6879518,0.6834823,0.6805323,0.6797042,0.6816875,0.6865358,0.6933085,0.7002825,0.7054729,0.7072435,0.7048259,0.6986062,0.6900565,0.6813982,0.6749489,0.6723463,0.6745482,0.6817617,0.6934104,0.7083159,0.7249843,0.7418668,0.7575104,0.7711530,0.7830731,0.7937196,0.8026934,0.8091693,0.8125300,0.8126981,0.8101376,0.8056570,0.7999197,0.7931717,0.7851422,0.7753372,0.7638802,0.7517688,0.7403098,0.7307077,0.7238126,0.7200260,0.7194009,0.7218289,0.7271814,0.7351054,0.7444715,0.7539367,0.7626273,0.7703303,0.7775485,0.7850886,0.7936678,0.8037111,0.8151370,0.8271751,0.8384320,0.8476918,0.8540967,0.8571791,0.8571939,0.8551268,0.8523432,0.8500740,0.8490430,0.8495330,0.8519575,0.8563884,0.8621057,0.8678352,0.8721726,0.8740877,0.8733307,0.8703265,0.8658063,0.8604669,0.8550151,0.8505622,0.8481493,0.8483366,0.8507104,0.8541146,0.8571266,0.8584257,0.8571220,0.8532511,0.8479339,0.8427935,0.8393737,0.8393316,0.8434887,0.8512302,0.8606774,0.8692859,0.8745638,0.8747866,0.8696222,0.8603338,0.8490644,0.8379890,0.8285855,0.8221159,0.8196763,0.8216683,0.8274399,0.8353123,0.8431677,0.8491131,0.8520707,0.8518291,0.8485001,0.8421439,0.8331825,0.8226076,0.8119572,0.8028496,0.7965732,0.7939096,0.7950929,0.8000380,0.8083609,0.8190782,0.8304953,0.8404454,0.8467505,0.8477326,0.8426678,0.8320660,0.8176232,0.8016623,0.7861741,0.7723233,0.7608811,0.7524524,0.7474333,0.7458759,0.7474072,0.7512776,0.7565380,0.7621753,0.7670974,0.7705736,0.7723055,0.7725128,0.7717807,0.7707666,0.7700206,0.7698517,0.7703136
0.7644265,0.7576259,0.7467243,0.7328085,0.7173992,0.7022374,0.6889462,0.6786310,0.6713709,0.6659948,0.6613212,0.6574705,0.6551904,0.6549252,0.6564302,0.6586466,0.6601050,0.6596165,0.6565750,0.6510026,0.6436018,0.6355973,0.6283935,0.6234877,0.6219966,0.6244181,0.6305298,0.6394743,0.6500406,0.6609931,0.6716583,0.6816600,0.6905535,0.6980275,0.7041101,0.7092439,0.7141821,0.7197148,0.7263039,0.7338604,0.7417690,0.7493150,0.7559567,0.7607785,0.7626711,0.7610018,0.7558887,0.7482459,0.7395954,0.7317825,0.7266557,0.7257568,0.7300249,0.7393106,0.7524191,0.7676469,0.7832292,0.7978445,0.8107017,0.8212292,0.8288111,0.8330306,0.8341627,0.8327092,0.8292482,0.8242216,0.8180122,0.8111065,0.8041221,0.7976787,0.7921948,0.7878618,0.7849615,0.7841754,0.7860604,0.7907123,0.7974711,0.8048875,0.8109650,0.8136245,0.8112868,0.8034181,0.7909567,0.7764088,0.7624945,0.7509010,0.7422390,0.7361810,0.7318534,0.7283312,0.7249087,0.7212596,0.7174194,0.7137217,0.7105251,0.7077170,0.7045768,0.7003583,0.6946517,0.6875814,0.6797883,0.6723189,0.6663409,0.6627337,0.6622654,0.6654905,0.6722994,0.6815551,0.6912958,0.6992727,0.7035816,0.7032394,0.6985498,0.6911129,0.6833208,0.6774440,0.6751920,0.6776611,0.6851985,0.6973542,0.7129951,0.7305617,0.7482457,0.7642623,0.7774586,0.7878625,0.7960587,0.8020041,0.8053007,0.8058737,0.8039946,0.8001653,0.7949022,0.7886175,0.7816281,0.7737917,0.7645811,0.7538802,0.7425271,0.7318317,0.7230181,0.7169275,0.7139171,0.7139748,0.7168910,0.7223988,0.7301407,0.7393176,0.7488497,0.7579271,0.7663249,0.7744971,0.7831763,0.7929581,0.8041152,0.8164778,0.8293770,0.8416599,0.8519718,0.8589849,0.8620080,0.8614184,0.8584629,0.8547636,0.8517865,0.8504135,0.8508586,0.8532527,0.8574782,0.8628510,0.8682608,0.8724778,0.8747668,0.8750005,0.8734592,0.8706143,0.8669510,0.8630230,0.8597187,0.8577081,0.8573395,0.8583387,0.8597353,0.8603404,0.8591211,0.8554570,0.8495307,0.8424331,0.8356868,0.8310227,0.8302179,0.8340436,0.8417979,0.8514990,0.8604519,0.8660013,0.8662950,0.8609100,0.8511917,0.8395934,0.8284546,0.8194746,0.8142444,0.8138646,0.8184125,0.8267597,0.8368989,0.8464996,0.8535291,0.8568075,0.8561611,0.8519584,0.8444962,0.8343480,0.8226676,0.8110872,0.8012541,0.7945114,0.7916837,0.7930558,0.7986492,0.8081779,0.8206957,0.8344678,0.8471802,0.8563957,0.8601058,0.8572622,0.8481451,0.8343934,0.8184763,0.8024623,0.7874534,0.7742684,0.7636890,0.7563618,0.7526123,0.7523169,0.7549070,0.7595111,0.7651623,0.7708198,0.7755342,0.7786327,0.7797559,0.7787239,0.7758067,0.7717308,0.7674420,0.7636157
0.7625994,0.7557343,0.7448943,0.7311809,0.7161329,0.7015190,0.6889913,0.6796810,0.6738260,0.6704403,0.6681900,0.6668338,0.6667168,0.6679452,0.6699840,0.6717084,0.6718881,0.6695472,0.6642667,0.6563861,0.6470654,0.6380876,0.6312458,0.6281361,0.6297366,0.6361234,0.6464679,0.6592874,0.6728211,0.6855508,0.6967553,0.7063798,0.7143856,0.7207770,0.7258196,0.7300961,0.7344021,0.7394510,0.7455143,0.7523362,0.7591146,0.7649336,0.7692129,0.7710774,0.7698386,0.7654330,0.7585208,0.7503615,0.7425557,0.7367612,0.7344379,0.7366497,0.7438716,0.7556229,0.7704693,0.7865262,0.8019470,0.8156124,0.8269646,0.8356086,0.8411988,0.8435762,0.8431488,0.8403745,0.8357388,0.8297272,0.8227488,0.8152926,0.8079700,0.8014058,0.7960737,0.7922194,0.7901176,0.7901901,0.7928676,0.7982110,0.8055045,0.8132436,0.8194155,0.8219567,0.8193146,0.8110056,0.7979700,0.7824540,0.7670277,0.7533157,0.7419933,0.7331203,0.7263827,0.7212635,0.7171842,0.7137314,0.7107264,0.7081264,0.7058862,0.7036402,0.7005272,0.6957413,0.6889508,0.6803716,0.6708099,0.6615737,0.6541165,0.6495906,0.6489730,0.6527939,0.6607808,0.6717463,0.6836128,0.6939655,0.7007201,0.7027202,0.7001316,0.6944849,0.6881853,0.6834805,0.6819715,0.6847581,0.6922766,0.7041878,0.7194492,0.7365249,0.7535023,0.7685038,0.7802592,0.7885639,0.7940278,0.7969076,0.7973558,0.7957892,0.7926246,0.7881446,0.7825386,0.7760802,0.7691119,0.7616794,0.7533312,0.7438094,0.7337349,0.7243356,0.7167848,0.7118979,0.7100966,0.7113530,0.7152475,0.7212666,0.7289417,0.7377527,0.7470548,0.7562063,0.7650263,0.7739250,0.7835542,0.7943919,0.8065512,0.8197358,0.8331661,0.8457916,0.8562670,0.8630669,0.8654682,0.8639320,0.8598678,0.8550839,0.8512176,0.8493079,0.8496271,0.8520026,0.8560446,0.8610296,0.8660710,0.8703785,0.8735382,0.8753433,0.8757482,0.8748659,0.8729665,0.8704186,0.8678990,0.8658782,0.8645449,0.8638485,0.8631540,0.8615607,0.8583146,0.8530386,0.8460004,0.8380849,0.8304574,0.8248898,0.8232507,0.8262658,0.8332298,0.8421793,0.8504302,0.8553290,0.8550305,0.8491319,0.8390175,0.8273981,0.8168073,0.8091742,0.8061394,0.8084801,0.8158264,0.8266965,0.8388519,0.8498293,0.8575483,0.8608538,0.8596972,0.8547198,0.8464741,0.8356683,0.8234927,0.8115285,0.8013889,0.7943795,0.7912974,0.7924803,0.7980531,0.8079006,0.8212272,0.8363735,0.8510038,0.8625633,0.8688489,0.8685649,0.8617166,0.8496492,0.8345499,0.8184369,0.8026781,0.7882740,0.7761775,0.7672114,0.7618829,0.7602425,0.7618540,0.7658917,0.7713395,0.7771509,0.7822273,0.7855388,0.7861443,0.7834488,0.7776600,0.7698644,0.7614789,0.7536746
0.7596625,0.7534173,0.7436499,0.7314004,0.7180861,0.7053395,0.6947133,0.6872675,0.6831907,0.6816602,0.6813508,0.6817909,0.6830355,0.6849048,0.6867162,0.6874576,0.6860245,0.6815581,0.6738269,0.6634682,0.6520319,0.6417377,0.6347448,0.6327575,0.6366690,0.6462860,0.6604226,0.6770145,0.6937227,0.7086507,0.7207919,0.7302339,0.7374263,0.7427134,0.7466672,0.7500943,0.7538518,0.7585439,0.7643008,0.7707413,0.7769435,0.7818552,0.7845685,0.7841472,0.7802956,0.7735386,0.7650607,0.7564510,0.7493907,0.7453705,0.7454769,0.7502697,0.7597337,0.7730503,0.7885906,0.8043090,0.8184783,0.8302156,0.8391571,0.8452413,0.8485215,0.8490793,0.8473783,0.8438341,0.8387567,0.8325872,0.8256873,0.8184613,0.8114489,0.8053295,0.8006869,0.7978835,0.7972128,0.7988150,0.8027444,0.8089927,0.8168501,0.8248328,0.8309932,0.8333769,0.8305617,0.8221524,0.8090047,0.7930159,0.7762920,0.7602318,0.7457272,0.7334009,0.7235164,0.7159974,0.7105064,0.7066417,0.7040854,0.7025043,0.7014720,0.7003033,0.6979575,0.6935588,0.6866930,0.6775486,0.6670252,0.6566130,0.6479611,0.6424452,0.6411915,0.6448069,0.6529330,0.6644391,0.6773292,0.6892119,0.6979588,0.7023068,0.7022292,0.6989620,0.6945863,0.6912316,0.6905858,0.6936824,0.7009568,0.7121330,0.7262514,0.7418139,0.7569337,0.7698593,0.7794676,0.7854839,0.7883947,0.7886821,0.7870417,0.7841789,0.7804336,0.7758476,0.7704105,0.7642399,0.7576268,0.7508054,0.7435085,0.7354298,0.7269797,0.7192234,0.7132358,0.7099307,0.7097881,0.7126209,0.7177665,0.7244675,0.7321243,0.7403444,0.7489530,0.7576487,0.7663344,0.7753946,0.7854128,0.7967606,0.8094063,0.8229352,0.8365074,0.8489841,0.8589295,0.8648668,0.8661455,0.8633227,0.8579020,0.8518110,0.8468376,0.8441904,0.8442856,0.8467168,0.8507354,0.8555488,0.8605512,0.8654726,0.8700425,0.8738323,0.8764152,0.8776001,0.8774450,0.8761336,0.8741171,0.8717715,0.8692381,0.8667213,0.8640406,0.8606894,0.8562354,0.8505170,0.8436416,0.8359908,0.8282278,0.8219746,0.8192147,0.8208062,0.8261290,0.8333603,0.8399906,0.8435356,0.8422878,0.8359333,0.8258433,0.8147093,0.8051723,0.7993416,0.7987024,0.8036635,0.8134626,0.8263362,0.8398892,0.8516027,0.8594502,0.8624339,0.8607406,0.8552815,0.8468098,0.8361000,0.8242527,0.8127192,0.8029534,0.7960857,0.7928559,0.7936221,0.7985643,0.8077641,0.8206999,0.8359401,0.8512933,0.8642626,0.8726050,0.8748545,0.8706714,0.8609713,0.8474292,0.8318674,0.8160337,0.8012547,0.7885999,0.7789604,0.7728986,0.7705284,0.7714799,0.7749619,0.7799066,0.7851605,0.7895712,0.7918497,0.7907013,0.7854977,0.7766160,0.7653625,0.7534813,0.7425162
0.7545864,0.7495304,0.7418269,0.7323720,0.7223209,0.7129527,0.7054480,0.7005921,0.6984791,0.6983786,0.6992007,0.7005137,0.7022495,0.7040973,0.7053388,0.7049263,0.7017759,0.6951485,0.6850067,0.6722428,0.6587092,0.6469369,0.6393664,0.6377999,0.6431663,0.6552749,0.6726046,0.6925539,0.7123144,0.7295320,0.7428275,0.7522573,0.7587204,0.7630527,0.7661098,0.7688707,0.7721991,0.7766017,0.7821117,0.7882455,0.7940813,0.7986123,0.8006162,0.7989567,0.7935107,0.7852360,0.7757650,0.7670029,0.7607235,0.7582547,0.7603263,0.7670398,0.7779038,0.7917830,0.8068266,0.8209458,0.8327124,0.8415358,0.8473058,0.8503593,0.8511849,0.8501032,0.8475154,0.8437416,0.8388959,0.8332968,0.8271957,0.8208692,0.8148745,0.8098957,0.8065262,0.8052827,0.8064021,0.8097961,0.8151808,0.8223202,0.8305521,0.8385080,0.8443965,0.8464586,0.8434601,0.8350868,0.8221130,0.8061192,0.7886122,0.7706373,0.7532403,0.7375153,0.7242954,0.7139890,0.7065795,0.7017728,0.6991892,0.6982955,0.6983659,0.6984267,0.6972956,0.6939484,0.6878115,0.6789999,0.6684316,0.6576211,0.6482857,0.6419328,0.6397244,0.6423543,0.6495206,0.6602516,0.6728244,0.6850646,0.6949678,0.7011827,0.7034095,0.7025402,0.7002041,0.6983027,0.6985557,0.7020220,0.7090421,0.7193356,0.7320159,0.7456392,0.7584127,0.7687850,0.7759121,0.7797522,0.7806504,0.7791700,0.7763251,0.7729098,0.7691970,0.7650769,0.7603427,0.7549345,0.7490334,0.7429681,0.7367560,0.7301492,0.7233985,0.7173672,0.7131298,0.7116717,0.7133520,0.7177924,0.7241359,0.7313976,0.7388192,0.7460876,0.7534186,0.7609893,0.7688567,0.7773935,0.7871275,0.7983452,0.8109156,0.8243626,0.8378047,0.8499593,0.8591014,0.8637506,0.8634708,0.8589605,0.8518520,0.8442152,0.8379781,0.8344973,0.8342893,0.8368563,0.8411009,0.8461321,0.8516808,0.8577823,0.8641192,0.8700169,0.8747815,0.8779685,0.8794398,0.8792324,0.8775666,0.8747536,0.8710067,0.8668124,0.8624636,0.8580362,0.8535172,0.8486482,0.8430806,0.8365358,0.8292028,0.8224248,0.8182182,0.8177492,0.8206417,0.8253561,0.8297039,0.8315078,0.8292989,0.8228794,0.8135293,0.8036089,0.7955427,0.7915522,0.7929797,0.7999124,0.8112988,0.8252240,0.8392407,0.8508695,0.8582258,0.8605662,0.8583978,0.8528641,0.8448287,0.8350534,0.8244789,0.8142905,0.8056308,0.7994166,0.7962746,0.7965306,0.8003607,0.8080198,0.8193504,0.8333083,0.8480218,0.8612384,0.8707827,0.8750093,0.8733368,0.8662580,0.8548496,0.8407197,0.8257702,0.8116967,0.7996385,0.7904308,0.7845648,0.7821023,0.7826611,0.7854685,0.7894686,0.7934572,0.7962167,0.7964248,0.7928104,0.7848797,0.7731976,0.7592361,0.7449195,0.7319794
0.7464901,0.7427865,0.7377169,0.7319948,0.7264048,0.7217186,0.7185352,0.7170951,0.7171528,0.7180546,0.7192207,0.7206280,0.7222909,0.7238147,0.7243435,0.7227540,0.7179866,0.7094195,0.6971921,0.6823935,0.6670642,0.6539112,0.6455409,0.6438671,0.6500413,0.6638849,0.6835813,0.7061699,0.7284567,0.7476616,0.7620231,0.7714747,0.7772488,0.7807287,0.7830479,0.7852844,0.7882634,0.7924203,0.7977263,0.8036873,0.8094914,0.8142163,0.8163973,0.8147170,0.8089921,0.8003318,0.7906398,0.7820670,0.7765208,0.7752812,0.7787983,0.7867335,0.7981655,0.8116361,0.8250595,0.8364599,0.8447940,0.8498585,0.8519386,0.8517349,0.8501224,0.8476684,0.8446113,0.8410593,0.8369218,0.8323592,0.8275090,0.8226719,0.8183553,0.8150888,0.8134649,0.8140633,0.8170083,0.8220440,0.8287009,0.8364727,0.8447416,0.8523337,0.8577019,0.8593251,0.8561481,0.8479294,0.8353272,0.8195901,0.8017814,0.7826345,0.7631666,0.7447586,0.7287028,0.7158258,0.7064145,0.7003416,0.6972674,0.6965555,0.6973030,0.6983998,0.6985425,0.6965561,0.6917301,0.6840837,0.6743936,0.6640203,0.6546420,0.6477886,0.6445451,0.6456123,0.6508521,0.6595732,0.6705073,0.6818668,0.6917841,0.6988543,0.7026627,0.7037472,0.7033001,0.7029661,0.7042850,0.7083091,0.7152763,0.7248341,0.7361327,0.7478152,0.7582685,0.7662023,0.7710508,0.7729990,0.7724547,0.7700139,0.7667437,0.7634438,0.7603309,0.7571795,0.7536167,0.7493879,0.7445136,0.7392839,0.7339916,0.7285992,0.7232947,0.7188288,0.7163158,0.7166255,0.7199375,0.7257182,0.7329006,0.7402743,0.7469652,0.7527613,0.7582045,0.7639710,0.7703643,0.7777696,0.7866639,0.7973195,0.8096132,0.8229237,0.8361771,0.8479090,0.8562176,0.8595351,0.8574898,0.8510063,0.8419679,0.8326468,0.8251286,0.8208778,0.8203677,0.8230227,0.8276542,0.8332905,0.8398494,0.8474011,0.8555608,0.8634987,0.8703084,0.8753327,0.8782677,0.8790488,0.8777134,0.8744795,0.8697035,0.8641896,0.8587747,0.8541943,0.8506586,0.8476258,0.8441096,0.8392213,0.8326822,0.8254632,0.8195479,0.8164835,0.8163300,0.8179744,0.8196818,0.8196844,0.8168106,0.8110029,0.8033778,0.7956613,0.7897721,0.7877542,0.7907665,0.7987150,0.8104479,0.8240514,0.8372131,0.8477109,0.8539588,0.8554622,0.8529586,0.8477620,0.8407578,0.8326545,0.8241413,0.8160175,0.8090949,0.8040198,0.8012216,0.8009495,0.8033547,0.8087994,0.8175242,0.8289961,0.8418141,0.8540588,0.8636161,0.8688925,0.8692129,0.8646036,0.8556930,0.8438565,0.8309081,0.8186866,0.8084007,0.8007009,0.7958863,0.7938725,0.7942060,0.7961283,0.7986619,0.8006948,0.8010699,0.7985191,0.7920652,0.7815335,0.7677164,0.7521770,0.7368013,0.7232632
0.7356192,0.7330964,0.7306479,0.7288697,0.7281867,0.7288064,0.7306452,0.7332664,0.7359282,0.7378965,0.7391422,0.7402738,0.7415314,0.7425031,0.7422410,0.7395640,0.7334402,0.7233559,0.7095982,0.6933955,0.6768613,0.6627188,0.6536140,0.6516574,0.6581843,0.6729894,0.6941113,0.7183805,0.7423245,0.7628707,0.7779300,0.7872743,0.7923452,0.7949872,0.7965809,0.7982650,0.8008678,0.8048255,0.8100970,0.8161938,0.8224824,0.8280654,0.8313059,0.8307153,0.8259804,0.8181574,0.8091801,0.8012734,0.7964172,0.7959055,0.8001160,0.8084918,0.8197173,0.8319359,0.8428704,0.8507673,0.8549987,0.8558131,0.8539571,0.8505024,0.8466007,0.8430285,0.8398561,0.8368200,0.8335955,0.8302007,0.8268116,0.8237747,0.8214416,0.8202187,0.8206483,0.8231274,0.8276466,0.8338809,0.8413189,0.8492911,0.8572129,0.8641612,0.8688590,0.8700320,0.8667476,0.8587198,0.8464836,0.8310269,0.8131916,0.7935570,0.7730856,0.7531908,0.7353834,0.7207667,0.7098422,0.7026049,0.6987688,0.6977157,0.6985656,0.7002206,0.7013599,0.7007737,0.6976632,0.6918261,0.6837451,0.6745625,0.6657895,0.6588660,0.6547453,0.6539943,0.6566600,0.6624468,0.6706733,0.6799435,0.6885833,0.6953683,0.6998319,0.7021716,0.7033040,0.7045891,0.7072401,0.7121280,0.7193897,0.7285514,0.7387687,0.7487964,0.7572520,0.7631530,0.7662403,0.7668454,0.7653843,0.7626752,0.7597110,0.7571110,0.7549739,0.7529910,0.7507165,0.7478030,0.7441184,0.7397690,0.7350994,0.7304159,0.7260273,0.7227386,0.7216047,0.7233124,0.7278500,0.7344435,0.7418036,0.7485801,0.7538720,0.7576084,0.7606288,0.7640522,0.7684857,0.7743706,0.7822206,0.7924031,0.8046429,0.8179962,0.8310936,0.8423375,0.8497829,0.8518166,0.8481233,0.8398051,0.8289762,0.8181402,0.8095682,0.8047430,0.8039969,0.8066117,0.8114372,0.8177301,0.8254110,0.8344211,0.8442684,0.8540076,0.8625932,0.8692190,0.8734425,0.8751108,0.8741723,0.8707216,0.8652625,0.8589660,0.8533306,0.8495254,0.8477257,0.8470282,0.8459019,0.8429051,0.8373060,0.8296727,0.8219066,0.8159317,0.8123885,0.8107147,0.8097414,0.8082097,0.8053458,0.8011683,0.7963749,0.7918569,0.7888940,0.7891207,0.7934453,0.8016142,0.8125292,0.8244556,0.8354025,0.8436101,0.8480057,0.8484773,0.8458373,0.8412661,0.8356130,0.8295240,0.8234531,0.8178200,0.8130467,0.8094317,0.8071489,0.8063412,0.8071792,0.8100708,0.8156125,0.8238124,0.8337816,0.8438721,0.8522509,0.8575809,0.8590987,0.8565221,0.8502533,0.8413778,0.8314407,0.8221342,0.8146346,0.8093426,0.8062609,0.8050855,0.8052546,0.8059939,0.8064134,0.8056513,0.8028804,0.7971034,0.7876752,0.7748603,0.7597350,0.7439049,0.7290365,0.7164578
0.7233077,0.7216530,0.7214543,0.7232547,0.7271864,0.7329482,0.7398048,0.7466235,0.7521198,0.7554774,0.7570211,0.7578592,0.7586122,0.7589832,0.7580170,0.7544999,0.7474181,0.7363465,0.7217006,0.7048093,0.6877969,0.6732742,0.6638225,0.6617162,0.6683314,0.6834328,0.7050287,0.7298749,0.7544140,0.7754212,0.7906238,0.7996051,0.8038774,0.8055719,0.8062829,0.8072508,0.8093862,0.8131620,0.8185305,0.8251121,0.8324077,0.8394703,0.8445798,0.8460985,0.8434973,0.8376258,0.8302805,0.8235950,0.8195003,0.8192989,0.8234051,0.8312329,0.8413288,0.8515006,0.8593499,0.8633862,0.8633547,0.8599413,0.8543104,0.8478531,0.8419026,0.8373669,0.8342368,0.8317919,0.8294100,0.8270601,0.8250653,0.8237605,0.8234160,0.8243361,0.8268052,0.8309766,0.8366975,0.8435732,0.8511874,0.8588611,0.8660579,0.8721258,0.8760783,0.8767802,0.8733022,0.8653937,0.8534988,0.8384420,0.8209978,0.8016395,0.7812224,0.7611042,0.7428074,0.7275289,0.7158583,0.7078633,0.7033058,0.7016345,0.7021084,0.7037832,0.7055226,0.7061919,0.7048683,0.7010871,0.6950478,0.6875952,0.6799673,0.6734043,0.6687244,0.6662583,0.6661533,0.6685685,0.6733892,0.6795909,0.6859069,0.6913817,0.6955054,0.6983707,0.7006908,0.7035268,0.7077291,0.7138350,0.7218053,0.7310056,0.7405696,0.7493817,0.7563405,0.7608522,0.7629490,0.7629641,0.7612443,0.7587325,0.7564495,0.7548446,0.7538041,0.7528924,0.7516186,0.7496341,0.7468052,0.7431684,0.7388863,0.7343654,0.7302849,0.7276402,0.7273982,0.7299942,0.7351049,0.7417057,0.7483670,0.7537121,0.7569160,0.7580878,0.7583441,0.7591622,0.7614415,0.7658109,0.7729587,0.7831417,0.7957289,0.8093377,0.8223192,0.8330109,0.8395223,0.8403155,0.8352047,0.8254468,0.8133270,0.8015196,0.7923713,0.7872628,0.7863496,0.7887984,0.7935802,0.8002755,0.8089468,0.8192914,0.8305868,0.8417645,0.8517009,0.8595401,0.8647975,0.8672493,0.8667745,0.8633975,0.8577211,0.8513601,0.8463653,0.8440467,0.8443746,0.8460931,0.8472744,0.8460544,0.8413213,0.8332770,0.8236900,0.8148209,0.8079308,0.8030815,0.7997498,0.7973076,0.7953524,0.7937955,0.7926526,0.7920301,0.7925227,0.7951775,0.8006605,0.8086504,0.8180978,0.8275231,0.8353925,0.8405313,0.8424695,0.8415789,0.8388157,0.8349738,0.8306722,0.8265594,0.8229339,0.8198451,0.8172928,0.8151950,0.8134441,0.8120711,0.8113314,0.8117203,0.8140408,0.8187308,0.8252792,0.8323682,0.8386325,0.8430123,0.8447907,0.8437090,0.8400307,0.8345099,0.8282944,0.8227074,0.8186997,0.8163923,0.8154318,0.8152448,0.8150731,0.8141003,0.8116542,0.8073071,0.8007400,0.7914475,0.7791494,0.7644849,0.7488355,0.7338276,0.7208360,0.7106792
0.7114646,0.7103477,0.7118219,0.7164409,0.7241401,0.7342185,0.7453212,0.7556938,0.7637352,0.7686985,0.7710019,0.7719328,0.7725186,0.7726123,0.7712950,0.7673753,0.7598660,0.7484053,0.7335059,0.7165820,0.6997549,0.6854776,0.6762159,0.6742681,0.6809171,0.6958266,0.7170279,0.7413812,0.7654223,0.7859212,0.8005963,0.8088674,0.8121499,0.8127052,0.8123029,0.8123229,0.8137934,0.8172474,0.8227609,0.8301289,0.8387990,0.8477783,0.8553587,0.8597864,0.8602801,0.8573518,0.8524953,0.8475984,0.8444446,0.8442927,0.8475387,0.8536752,0.8614230,0.8686460,0.8729605,0.8730883,0.8690728,0.8619583,0.8532222,0.8444302,0.8369160,0.8315310,0.8282832,0.8262323,0.8244328,0.8228911,0.8220533,0.8222909,0.8237912,0.8266225,0.8308042,0.8362746,0.8427717,0.8498320,0.8570745,0.8639718,0.8701286,0.8751724,0.8782926,0.8783814,0.8746366,0.8668763,0.8554444,0.8411230,0.8246916,0.8065410,0.7873468,0.7682615,0.7506466,0.7356684,0.7239487,0.7156062,0.7104743,0.7081225,0.7079328,0.7091381,0.7109003,0.7122871,0.7123861,0.7105824,0.7067704,0.7013937,0.6953044,0.6894699,0.6845777,0.6807857,0.6781880,0.6773304,0.6785011,0.6811388,0.6844429,0.6877387,0.6907141,0.6934900,0.6965843,0.7007790,0.7066094,0.7142118,0.7232623,0.7329339,0.7423178,0.7504626,0.7566367,0.7605879,0.7624869,0.7625676,0.7611371,0.7591350,0.7575543,0.7567638,0.7565287,0.7562942,0.7555027,0.7538149,0.7511646,0.7476697,0.7435090,0.7389691,0.7348664,0.7324289,0.7324932,0.7352074,0.7399746,0.7455959,0.7505992,0.7536929,0.7542334,0.7525552,0.7500099,0.7483241,0.7486494,0.7520007,0.7591087,0.7698699,0.7831459,0.7971450,0.8100122,0.8200343,0.8255108,0.8251363,0.8189238,0.8082638,0.7955413,0.7834691,0.7742881,0.7691863,0.7681825,0.7704788,0.7752391,0.7821718,0.7914820,0.8028404,0.8152712,0.8275157,0.8383583,0.8469292,0.8527803,0.8557428,0.8557128,0.8526697,0.8472965,0.8416040,0.8379037,0.8374336,0.8399422,0.8438731,0.8469829,0.8471249,0.8429643,0.8344898,0.8233079,0.8119308,0.8021752,0.7947332,0.7897779,0.7872530,0.7869700,0.7885327,0.7913188,0.7948176,0.7989227,0.8040321,0.8105449,0.8181850,0.8259858,0.8327429,0.8373770,0.8392993,0.8386823,0.8364148,0.8335210,0.8304451,0.8274765,0.8250792,0.8235015,0.8225512,0.8218609,0.8210089,0.8196315,0.8176545,0.8154320,0.8136697,0.8132199,0.8146817,0.8177152,0.8213981,0.8248331,0.8273668,0.8286237,0.8285222,0.8272371,0.8251818,0.8230219,0.8215680,0.8213648,0.8222105,0.8233859,0.8239735,0.8230124,0.8197575,0.8138823,0.8054784,0.7947901,0.7819206,0.7670627,0.7511141,0.7356662,0.7222979,0.7120782,0.7052785
0.7020268,0.7011985,0.7036977,0.7101427,0.7203908,0.7333539,0.7471932,0.7598963,0.7698720,0.7764923,0.7800314,0.7816850,0.7826835,0.7831339,0.7821260,0.7784631,0.7711796,0.7599622,0.7453925,0.7289513,0.7127848,0.6992646,0.6907128,0.6892383,0.6959265,0.7103146,0.7304462,0.7534108,0.7759688,0.7950247,0.8084251,0.8155731,0.8176782,0.8169451,0.8152224,0.8140381,0.8145604,0.8175168,0.8232184,0.8314787,0.8416468,0.8526928,0.8630141,0.8708013,0.8750166,0.8757564,0.8740713,0.8714731,0.8694740,0.8691250,0.8708205,0.8742954,0.8786765,0.8822173,0.8827166,0.8790184,0.8714607,0.8613575,0.8503646,0.8400767,0.8316791,0.8257508,0.8221473,0.8200095,0.8184903,0.8176048,0.8177997,0.8193685,0.8223424,0.8265918,0.8319377,0.8381710,0.8449835,0.8519156,0.8584832,0.8643005,0.8692693,0.8732425,0.8754436,0.8749171,0.8710364,0.8636393,0.8530359,0.8399762,0.8252653,0.8092495,0.7923999,0.7755545,0.7597328,0.7458961,0.7346594,0.7262088,0.7204483,0.7170827,0.7156893,0.7157530,0.7167618,0.7180736,0.7189510,0.7187609,0.7171389,0.7140966,0.7099824,0.7053174,0.7005621,0.6959059,0.6914263,0.6878067,0.6855529,0.6845402,0.6844592,0.6851136,0.6864894,0.6887543,0.6922743,0.6975587,0.7049076,0.7140902,0.7244362,0.7349102,0.7445642,0.7526673,0.7587854,0.7628813,0.7651381,0.7657486,0.7649780,0.7636457,0.7626590,0.7623277,0.7623711,0.7621965,0.7612336,0.7591777,0.7560593,0.7521678,0.7478657,0.7434632,0.7394883,0.7369318,0.7365828,0.7384451,0.7417855,0.7453587,0.7477606,0.7478778,0.7453352,0.7407638,0.7357087,0.7319860,0.7309898,0.7340646,0.7417909,0.7535340,0.7676642,0.7820807,0.7947616,0.8039467,0.8082681,0.8068204,0.7998775,0.7889470,0.7763824,0.7647249,0.7559382,0.7510298,0.7500327,0.7523762,0.7573344,0.7645579,0.7742648,0.7862279,0.7993625,0.8122613,0.8236016,0.8324741,0.8384661,0.8415024,0.8416237,0.8389682,0.8343254,0.8298172,0.8277358,0.8291682,0.8336543,0.8393891,0.8439027,0.8448904,0.8409333,0.8319991,0.8196220,0.8064501,0.7947008,0.7856298,0.7799997,0.7781367,0.7798495,0.7844122,0.7908264,0.7980998,0.8055343,0.8129211,0.8203866,0.8277346,0.8341019,0.8385396,0.8404011,0.8397268,0.8372971,0.8342528,0.8314194,0.8290163,0.8271899,0.8261154,0.8259331,0.8263719,0.8268422,0.8266970,0.8254063,0.8228280,0.8193759,0.8159089,0.8133763,0.8121870,0.8119612,0.8121418,0.8123842,0.8125940,0.8128626,0.8133425,0.8141665,0.8154357,0.8172959,0.8199634,0.8234624,0.8272204,0.8301579,0.8310344,0.8288092,0.8229284,0.8134742,0.8010101,0.7863497,0.7702465,0.7533715,0.7367656,0.7220712,0.7107696,0.7036435,0.7004576
0.6964885,0.6958725,0.6988269,0.7060883,0.7174090,0.7314039,0.7461550,0.7597807,0.7709624,0.7791034,0.7842376,0.7872637,0.7893602,0.7908371,0.7908418,0.7881457,0.7817678,0.7714062,0.7576934,0.7422126,0.7271515,0.7148109,0.7073325,0.7064852,0.7130904,0.7265852,0.7450985,0.7659645,0.7862262,0.8030355,0.8144692,0.8200866,0.8209265,0.8188951,0.8157944,0.8132798,0.8127546,0.8151992,0.8210233,0.8300427,0.8415559,0.8544962,0.8674240,0.8785790,0.8866975,0.8914299,0.8932902,0.8933026,0.8925455,0.8918413,0.8916420,0.8920190,0.8925952,0.8921622,0.8888667,0.8816611,0.8710664,0.8586123,0.8460618,0.8349362,0.8261747,0.8199948,0.8159888,0.8133542,0.8117235,0.8112883,0.8123018,0.8148821,0.8188841,0.8240021,0.8299185,0.8363630,0.8430769,0.8496783,0.8555518,0.8603261,0.8642137,0.8672065,0.8686376,0.8677687,0.8641086,0.8575390,0.8483505,0.8372011,0.8248920,0.8117777,0.7981204,0.7844043,0.7712217,0.7591714,0.7487113,0.7400412,0.7332094,0.7281748,0.7248137,0.7229057,0.7223048,0.7227367,0.7236857,0.7245521,0.7248056,0.7240913,0.7222489,0.7192613,0.7151732,0.7100669,0.7042800,0.6985156,0.6932975,0.6889226,0.6856415,0.6837325,0.6834520,0.6850498,0.6887828,0.6948940,0.7034736,0.7140557,0.7256718,0.7370938,0.7473626,0.7559042,0.7624599,0.7670750,0.7699536,0.7713358,0.7714282,0.7708285,0.7703028,0.7701019,0.7699609,0.7693255,0.7676713,0.7647793,0.7608904,0.7565123,0.7521022,0.7479483,0.7443061,0.7415690,0.7402242,0.7403044,0.7411657,0.7416994,0.7407072,0.7373390,0.7315145,0.7241663,0.7170467,0.7119374,0.7104121,0.7138539,0.7225527,0.7354254,0.7504120,0.7651574,0.7775003,0.7856826,0.7887230,0.7862951,0.7790042,0.7683964,0.7566152,0.7458132,0.7376388,0.7330385,0.7322559,0.7349875,0.7404727,0.7481902,0.7582596,0.7705616,0.7840556,0.7972377,0.8087073,0.8175099,0.8232268,0.8258504,0.8255979,0.8229322,0.8189519,0.8156602,0.8151162,0.8182360,0.8243732,0.8315305,0.8370594,0.8385390,0.8345707,0.8252813,0.8123156,0.7983270,0.7857130,0.7761183,0.7706599,0.7697982,0.7732864,0.7802770,0.7895347,0.7997274,0.8097502,0.8189681,0.8272680,0.8345016,0.8399251,0.8428287,0.8430746,0.8412578,0.8383958,0.8354878,0.8330308,0.8311636,0.8300145,0.8296354,0.8300438,0.8309961,0.8318313,0.8317929,0.8302937,0.8271860,0.8228871,0.8182143,0.8140797,0.8107334,0.8077010,0.8047160,0.8019561,0.7999070,0.7991107,0.7999566,0.8025765,0.8068196,0.8123451,0.8187478,0.8254839,0.8315894,0.8356913,0.8363721,0.8326496,0.8242339,0.8115342,0.7955579,0.7776478,0.7590774,0.7408887,0.7241876,0.7105253,0.7012752,0.6969702,0.6969919
0.6955942,0.6953309,0.6983843,0.7055481,0.7164079,0.7296277,0.7435962,0.7568932,0.7685241,0.7779021,0.7848244,0.7897427,0.7935748,0.7966656,0.7982475,0.7970657,0.7921061,0.7831068,0.7708320,0.7568796,0.7433594,0.7324608,0.7261194,0.7257192,0.7318199,0.7438533,0.7601254,0.7782864,0.7956344,0.8096411,0.8186673,0.8224486,0.8220292,0.8189478,0.8148065,0.8113183,0.8100146,0.8119919,0.8177609,0.8272065,0.8396515,0.8540255,0.8690323,0.8830956,0.8948056,0.9033810,0.9087651,0.9114103,0.9119455,0.9109895,0.9090896,0.9066130,0.9036036,0.8994249,0.8927011,0.8825678,0.8696008,0.8554361,0.8418687,0.8302920,0.8213657,0.8148845,0.8101528,0.8065653,0.8041926,0.8035707,0.8049484,0.8081557,0.8128091,0.8184344,0.8245953,0.8309772,0.8373924,0.8435549,0.8489036,0.8530195,0.8562385,0.8586535,0.8597929,0.8591230,0.8562934,0.8512281,0.8441502,0.8355691,0.8261966,0.8164558,0.8064375,0.7962639,0.7860704,0.7760469,0.7663095,0.7570264,0.7485109,0.7410902,0.7350007,0.7303394,0.7273160,0.7260267,0.7262348,0.7274435,0.7290202,0.7303065,0.7306794,0.7295797,0.7265607,0.7214318,0.7146616,0.7072088,0.6996980,0.6927182,0.6869709,0.6830914,0.6815491,0.6826522,0.6865668,0.6933185,0.7027420,0.7143009,0.7268883,0.7391552,0.7501102,0.7592375,0.7663374,0.7715052,0.7750357,0.7772366,0.7782720,0.7784415,0.7782933,0.7780108,0.7773860,0.7759761,0.7733983,0.7697140,0.7653604,0.7608433,0.7565543,0.7527022,0.7493260,0.7463546,0.7437695,0.7415584,0.7392796,0.7361437,0.7313130,0.7242920,0.7153061,0.7055021,0.6967195,0.6907081,0.6891208,0.6932186,0.7029694,0.7168989,0.7325819,0.7474610,0.7592756,0.7663507,0.7680539,0.7647271,0.7573512,0.7474346,0.7367411,0.7269377,0.7194568,0.7153481,0.7151344,0.7186089,0.7249642,0.7334487,0.7439958,0.7565473,0.7702068,0.7834377,0.7947845,0.8032214,0.8082394,0.8098288,0.8084550,0.8050860,0.8011883,0.7986704,0.7992114,0.8035374,0.8108585,0.8190671,0.8254247,0.8274510,0.8237518,0.8145741,0.8018057,0.7881426,0.7758667,0.7667142,0.7618987,0.7619562,0.7666823,0.7751888,0.7861097,0.7979385,0.8093860,0.8196526,0.8285331,0.8358764,0.8410393,0.8436326,0.8439958,0.8428865,0.8411339,0.8392872,0.8376097,0.8361802,0.8351544,0.8346536,0.8346879,0.8351473,0.8355043,0.8350089,0.8330832,0.8296054,0.8249086,0.8195835,0.8142327,0.8090125,0.8036447,0.7980964,0.7929600,0.7891913,0.7876907,0.7890045,0.7932083,0.7999392,0.8085121,0.8179863,0.8272615,0.8350266,0.8397643,0.8400568,0.8350520,0.8246429,0.8095406,0.7911454,0.7711635,0.7511867,0.7324645,0.7160792,0.7034301,0.6957882,0.6935278,0.6958537
0.6992341,0.6996336,0.7026745,0.7090089,0.7182017,0.7292872,0.7412551,0.7532718,0.7646675,0.7749207,0.7836507,0.7907883,0.7968144,0.8019330,0.8054196,0.8060238,0.8027914,0.7956425,0.7853341,0.7733287,0.7615976,0.7521634,0.7467402,0.7463833,0.7513357,0.7611094,0.7743707,0.7892030,0.8032157,0.8141688,0.8207134,0.8227342,0.8212308,0.8175731,0.8131051,0.8093352,0.8077385,0.8094392,0.8150235,0.8244812,0.8372558,0.8523784,0.8686583,0.8847738,0.8993104,0.9111239,0.9196304,0.9247544,0.9267317,0.9260180,0.9231625,0.9186515,0.9128154,0.9055748,0.8961071,0.8837938,0.8691983,0.8539296,0.8397301,0.8277944,0.8183659,0.8109035,0.8047287,0.7996488,0.7960002,0.7944939,0.7955354,0.7988197,0.8037352,0.8096205,0.8159261,0.8223134,0.8285926,0.8344687,0.8395216,0.8435446,0.8467965,0.8493693,0.8509974,0.8513302,0.8501319,0.8473267,0.8430260,0.8375506,0.8314261,0.8251348,0.8187108,0.8119488,0.8045305,0.7962129,0.7868452,0.7765716,0.7659399,0.7556721,0.7463500,0.7383818,0.7322787,0.7284788,0.7270335,0.7276275,0.7296224,0.7321465,0.7341911,0.7347200,0.7328117,0.7279625,0.7206120,0.7118227,0.7026344,0.6939447,0.6867065,0.6817722,0.6797516,0.6809410,0.6853294,0.6926803,0.7026307,0.7146318,0.7276624,0.7403734,0.7517190,0.7611700,0.7685674,0.7740878,0.7781238,0.7810572,0.7830376,0.7840571,0.7843298,0.7839390,0.7827624,0.7805674,0.7773470,0.7734412,0.7692473,0.7650820,0.7611747,0.7576282,0.7543195,0.7508981,0.7469358,0.7422885,0.7367460,0.7298891,0.7213064,0.7109019,0.6991869,0.6873952,0.6772503,0.6704667,0.6689024,0.6736318,0.6842729,0.6989949,0.7150904,0.7298433,0.7409546,0.7469098,0.7473645,0.7431734,0.7357738,0.7266123,0.7169747,0.7081494,0.7015075,0.6982326,0.6989204,0.7034073,0.7108845,0.7203912,0.7315998,0.7444536,0.7582170,0.7713774,0.7824318,0.7901954,0.7940088,0.7939322,0.7907913,0.7860716,0.7815115,0.7790258,0.7799684,0.7848043,0.7926876,0.8015049,0.8085423,0.8113529,0.8085710,0.8004654,0.7889293,0.7766048,0.7656121,0.7575450,0.7535911,0.7543206,0.7595506,0.7683989,0.7795248,0.7914662,0.8029823,0.8133467,0.8224443,0.8301312,0.8358495,0.8396100,0.8418901,0.8431930,0.8438044,0.8438444,0.8433645,0.8423577,0.8409921,0.8395712,0.8382907,0.8372934,0.8363461,0.8348905,0.8324385,0.8288965,0.8243526,0.8189315,0.8127648,0.8059211,0.7984694,0.7908499,0.7840044,0.7791880,0.7775215,0.7796166,0.7854195,0.7942787,0.8051734,0.8168881,0.8279625,0.8368632,0.8420649,0.8422016,0.8365050,0.8250531,0.8088300,0.7894705,0.7688549,0.7486740,0.7301800,0.7143407,0.7024243,0.6956210,0.6942864,0.6975876
0.7065589,0.7079107,0.7109825,0.7161216,0.7230394,0.7313242,0.7406715,0.7508298,0.7614917,0.7722600,0.7826510,0.7921250,0.8005694,0.8078936,0.8133368,0.8157462,0.8144493,0.8094435,0.8013500,0.7914546,0.7815164,0.7733413,0.7684059,0.7675059,0.7706509,0.7774667,0.7871013,0.7981397,0.8086126,0.8166018,0.8209408,0.8215566,0.8192987,0.8153855,0.8111359,0.8077869,0.8065199,0.8083219,0.8137687,0.8229380,0.8354376,0.8505059,0.8671463,0.8842496,0.9005475,0.9146858,0.9257164,0.9331760,0.9369860,0.9373333,0.9345803,0.9291923,0.9216582,0.9123365,0.9009966,0.8873022,0.8717832,0.8559011,0.8412174,0.8285305,0.8177693,0.8083930,0.8000814,0.7930390,0.7877302,0.7848750,0.7849584,0.7877154,0.7924131,0.7982743,0.8046775,0.8112419,0.8176760,0.8236259,0.8287600,0.8331939,0.8372625,0.8409338,0.8440303,0.8462906,0.8475248,0.8476275,0.8465861,0.8445121,0.8416876,0.8385271,0.8351517,0.8311429,0.8258032,0.8185542,0.8091267,0.7977300,0.7850028,0.7718498,0.7591795,0.7477024,0.7381410,0.7312053,0.7272250,0.7261256,0.7273689,0.7299930,0.7327603,0.7342610,0.7331420,0.7286452,0.7210460,0.7113504,0.7009536,0.6912199,0.6833101,0.6781951,0.6765221,0.6784966,0.6838697,0.6920924,0.7025301,0.7145738,0.7274346,0.7399446,0.7510668,0.7602833,0.7675141,0.7730292,0.7773185,0.7808311,0.7837083,0.7857171,0.7866176,0.7863178,0.7848132,0.7822509,0.7790724,0.7756795,0.7722552,0.7688433,0.7654960,0.7621995,0.7587336,0.7546148,0.7492106,0.7422306,0.7336750,0.7235045,0.7117303,0.6985897,0.6847422,0.6714440,0.6602393,0.6527748,0.6510486,0.6561025,0.6672410,0.6823138,0.6984244,0.7127424,0.7229590,0.7277694,0.7271360,0.7222033,0.7147669,0.7062427,0.6975636,0.6898159,0.6842877,0.6821155,0.6838986,0.6895065,0.6981701,0.7088357,0.7208769,0.7341599,0.7480572,0.7610998,0.7716839,0.7784339,0.7806344,0.7785060,0.7732662,0.7667499,0.7608993,0.7576605,0.7582141,0.7627523,0.7704542,0.7793355,0.7868357,0.7906387,0.7894383,0.7834413,0.7742818,0.7641506,0.7550216,0.7484106,0.7453549,0.7463594,0.7512636,0.7592865,0.7692345,0.7798501,0.7901682,0.7997364,0.8086686,0.8168842,0.8239842,0.8301736,0.8357010,0.8405112,0.8443424,0.8469003,0.8479764,0.8474670,0.8455129,0.8426208,0.8393278,0.8361578,0.8333030,0.8305846,0.8277568,0.8246100,0.8207564,0.8156447,0.8090042,0.8008803,0.7916506,0.7822983,0.7741439,0.7687008,0.7672221,0.7702990,0.7776974,0.7884500,0.8011705,0.8143992,0.8266889,0.8365038,0.8422872,0.8427186,0.8371494,0.8258689,0.8100177,0.7912826,0.7715107,0.7522891,0.7346758,0.7194677,0.7078391,0.7009504,0.6992274,0.7020001
0.7162141,0.7185507,0.7217136,0.7257032,0.7303940,0.7359303,0.7426373,0.7508022,0.7604971,0.7714937,0.7832618,0.7949599,0.8058081,0.8152732,0.8224956,0.8266264,0.8272666,0.8243968,0.8184993,0.8106296,0.8022575,0.7949376,0.7899320,0.7878704,0.7886686,0.7921134,0.7978626,0.8050168,0.8120730,0.8173655,0.8198205,0.8193943,0.8167571,0.8129873,0.8093109,0.8068457,0.8064404,0.8087631,0.8142304,0.8229433,0.8346824,0.8489614,0.8650903,0.8821991,0.8991800,0.9147215,0.9277636,0.9375702,0.9436855,0.9459260,0.9443771,0.9393693,0.9314167,0.9211139,0.9087845,0.8944195,0.8785206,0.8623102,0.8469149,0.8327842,0.8198268,0.8078327,0.7969633,0.7876675,0.7804771,0.7760198,0.7747682,0.7765647,0.7806576,0.7862403,0.7926759,0.7994857,0.8062471,0.8125502,0.8181829,0.8235294,0.8290153,0.8346404,0.8401549,0.8451954,0.8494770,0.8528089,0.8550853,0.8562942,0.8565166,0.8559400,0.8547523,0.8525251,0.8483515,0.8415151,0.8317757,0.8193605,0.8048891,0.7892773,0.7736094,0.7588543,0.7458484,0.7354551,0.7282511,0.7244421,0.7236977,0.7251687,0.7275456,0.7291178,0.7282242,0.7239030,0.7161759,0.7059432,0.6947896,0.6844912,0.6764253,0.6716653,0.6708551,0.6740746,0.6808408,0.6902795,0.7014044,0.7133996,0.7256206,0.7372503,0.7474557,0.7558142,0.7623646,0.7674821,0.7717486,0.7756736,0.7793778,0.7824896,0.7843403,0.7845461,0.7832300,0.7810224,0.7786208,0.7763164,0.7740268,0.7715800,0.7688268,0.7656532,0.7618173,0.7568244,0.7500161,0.7410430,0.7300593,0.7173667,0.7032604,0.6881274,0.6727997,0.6585435,0.6466992,0.6387981,0.6367661,0.6416514,0.6526098,0.6673041,0.6827670,0.6961263,0.7051196,0.7086803,0.7070992,0.7017745,0.6945312,0.6867189,0.6791391,0.6726922,0.6684906,0.6675506,0.6704350,0.6770602,0.6867415,0.6984757,0.7114220,0.7252582,0.7393560,0.7522368,0.7621635,0.7676785,0.7681168,0.7639187,0.7565544,0.7480782,0.7405768,0.7359699,0.7353714,0.7388157,0.7455713,0.7539136,0.7615638,0.7664394,0.7673380,0.7642852,0.7583695,0.7511068,0.7441732,0.7390515,0.7366335,0.7373246,0.7410570,0.7472648,0.7550285,0.7633912,0.7717043,0.7798764,0.7883487,0.7971687,0.8061467,0.8153654,0.8246613,0.8334462,0.8409199,0.8463401,0.8492109,0.8493323,0.8468171,0.8423105,0.8367439,0.8311167,0.8261584,0.8222544,0.8194158,0.8171443,0.8143460,0.8098348,0.8030343,0.7940002,0.7833715,0.7726163,0.7634485,0.7575808,0.7563590,0.7603381,0.7691157,0.7814835,0.7957810,0.8102630,0.8234098,0.8339603,0.8404621,0.8416321,0.8369817,0.8269617,0.8127745,0.7960372,0.7783754,0.7610447,0.7447951,0.7302185,0.7184325,0.7105989,0.7073306,0.7083593
0.7263444,0.7295885,0.7327396,0.7357872,0.7387348,0.7420898,0.7466654,0.7532021,0.7620800,0.7731974,0.7860070,0.7995511,0.8125523,0.8239001,0.8326524,0.8383374,0.8407430,0.8398466,0.8359515,0.8298178,0.8226070,0.8156381,0.8100202,0.8063048,0.8044457,0.8044568,0.8064424,0.8099872,0.8138952,0.8167559,0.8176991,0.8166369,0.8140892,0.8109918,0.8083492,0.8071186,0.8078681,0.8109258,0.8164888,0.8246143,0.8352330,0.8481679,0.8631160,0.8795429,0.8964830,0.9127769,0.9274217,0.9394818,0.9481593,0.9528987,0.9534628,0.9499534,0.9427748,0.9325609,0.9199924,0.9054556,0.8894670,0.8728983,0.8563634,0.8401925,0.8245625,0.8097379,0.7962071,0.7846086,0.7754892,0.7693685,0.7666535,0.7672721,0.7705450,0.7756999,0.7820532,0.7889946,0.7960051,0.8027347,0.8091934,0.8159156,0.8233122,0.8313946,0.8398711,0.8481983,0.8558304,0.8623764,0.8676157,0.8714834,0.8740467,0.8754414,0.8756560,0.8742422,0.8704072,0.8635292,0.8533984,0.8401915,0.8244825,0.8071369,0.7892364,0.7718687,0.7558908,0.7421441,0.7313808,0.7241102,0.7203651,0.7195986,0.7205068,0.7212257,0.7199371,0.7154353,0.7074898,0.6969066,0.6853364,0.6747787,0.6668201,0.6626114,0.6627996,0.6673673,0.6755998,0.6862493,0.6980035,0.7098950,0.7213316,0.7317967,0.7407291,0.7478746,0.7534381,0.7579202,0.7619812,0.7661752,0.7706088,0.7748101,0.7778744,0.7790659,0.7785961,0.7774172,0.7762611,0.7752838,0.7742461,0.7727535,0.7704751,0.7672293,0.7628289,0.7568801,0.7488318,0.7383897,0.7258184,0.7115840,0.6960293,0.6797381,0.6637126,0.6491463,0.6372283,0.6292687,0.6269203,0.6311503,0.6411416,0.6545428,0.6684795,0.6801645,0.6874924,0.6896661,0.6872966,0.6819503,0.6753306,0.6684801,0.6621227,0.6571054,0.6543874,0.6548101,0.6588052,0.6662587,0.6766014,0.6890391,0.7027648,0.7171949,0.7315274,0.7441774,0.7533467,0.7576174,0.7564586,0.7504596,0.7412150,0.7309022,0.7216826,0.7153729,0.7130503,0.7147442,0.7198977,0.7271563,0.7346472,0.7406409,0.7439826,0.7443265,0.7419936,0.7378712,0.7332358,0.7293345,0.7270281,0.7267191,0.7285065,0.7321394,0.7370961,0.7428118,0.7489638,0.7557019,0.7636120,0.7729278,0.7837120,0.7958519,0.8087782,0.8214141,0.8324605,0.8407466,0.8454852,0.8463778,0.8435753,0.8377667,0.8302057,0.8223884,0.8157183,0.8111507,0.8088241,0.8077822,0.8062599,0.8025912,0.7958967,0.7862623,0.7745737,0.7626773,0.7526590,0.7463851,0.7452632,0.7498273,0.7596585,0.7734367,0.7891927,0.8048360,0.8186663,0.8296368,0.8367197,0.8388383,0.8356574,0.8276743,0.8160245,0.8021294,0.7872904,0.7723683,0.7577395,0.7438048,0.7316433,0.7224409,0.7170357,0.7155321
0.7349972,0.7390997,0.7421845,0.7443726,0.7459991,0.7478373,0.7510096,0.7565703,0.7651083,0.7765620,0.7902697,0.8051480,0.8197914,0.8326571,0.8427443,0.8498526,0.8538842,0.8547440,0.8525342,0.8477383,0.8412491,0.8341863,0.8275570,0.8219232,0.8173920,0.8142238,0.8128894,0.8132421,0.8143452,0.8151660,0.8150426,0.8138074,0.8118760,0.8100107,0.8089290,0.8093219,0.8115138,0.8154755,0.8211710,0.8286167,0.8379041,0.8491743,0.8625237,0.8777809,0.8941836,0.9107540,0.9265693,0.9406120,0.9518092,0.9592525,0.9623786,0.9610468,0.9555030,0.9462679,0.9340501,0.9195895,0.9035174,0.8863382,0.8683559,0.8499916,0.8317814,0.8143165,0.7983532,0.7846529,0.7737504,0.7660836,0.7619843,0.7614312,0.7638462,0.7684601,0.7744842,0.7812026,0.7881558,0.7952181,0.8026735,0.8110589,0.8207088,0.8315373,0.8431194,0.8547130,0.8654998,0.8748492,0.8823953,0.8880733,0.8921011,0.8947253,0.8957961,0.8945714,0.8904688,0.8831876,0.8726167,0.8589133,0.8425739,0.8243469,0.8051731,0.7861032,0.7679752,0.7514365,0.7372532,0.7262446,0.7189689,0.7152348,0.7138619,0.7130072,0.7107430,0.7056559,0.6972981,0.6863604,0.6745076,0.6638019,0.6559769,0.6522470,0.6532591,0.6588573,0.6680248,0.6793098,0.6913070,0.7030099,0.7138054,0.7233012,0.7312377,0.7374323,0.7421751,0.7461074,0.7499703,0.7543453,0.7593261,0.7643986,0.7685896,0.7710022,0.7717991,0.7719621,0.7721901,0.7725631,0.7726700,0.7719292,0.7698868,0.7663371,0.7612059,0.7543015,0.7452856,0.7340106,0.7207780,0.7059264,0.6898570,0.6733481,0.6574627,0.6433199,0.6319562,0.6243359,0.6217007,0.6248828,0.6332278,0.6445602,0.6562018,0.6655815,0.6708724,0.6715009,0.6682865,0.6628996,0.6569429,0.6512603,0.6462838,0.6427614,0.6415773,0.6434302,0.6486006,0.6568793,0.6677038,0.6804340,0.6945463,0.7094336,0.7239284,0.7362805,0.7447212,0.7479534,0.7455644,0.7382189,0.7275494,0.7157535,0.7050019,0.6969675,0.6926540,0.6921986,0.6953243,0.7011458,0.7083477,0.7155177,0.7213969,0.7250637,0.7261195,0.7249411,0.7223311,0.7191774,0.7163487,0.7143730,0.7135978,0.7141776,0.7160700,0.7191450,0.7234218,0.7292159,0.7369411,0.7467988,0.7591243,0.7736672,0.7895232,0.8052583,0.8192151,0.8299172,0.8363575,0.8381293,0.8354302,0.8290086,0.8202828,0.8112046,0.8038119,0.7994215,0.7980928,0.7984621,0.7983334,0.7956504,0.7892445,0.7792127,0.7666959,0.7538266,0.7429788,0.7361216,0.7347133,0.7394521,0.7500070,0.7648885,0.7818275,0.7984016,0.8126885,0.8237487,0.8310465,0.8339623,0.8323568,0.8267209,0.8179995,0.8072853,0.7954733,0.7830240,0.7700421,0.7568948,0.7445541,0.7340776,0.7263945,0.7219641
0.7408474,0.7457849,0.7488627,0.7502854,0.7507961,0.7515093,0.7538131,0.7589569,0.7676228,0.7797094,0.7943798,0.8103268,0.8260416,0.8400357,0.8513875,0.8598926,0.8654103,0.8677595,0.8668902,0.8630763,0.8569954,0.8495968,0.8418136,0.8342949,0.8273552,0.8215042,0.8174239,0.8150700,0.8138683,0.8131569,0.8124370,0.8115319,0.8107131,0.8105454,0.8114729,0.8138598,0.8177836,0.8228767,0.8288629,0.8357092,0.8436231,0.8530398,0.8644910,0.8781599,0.8935719,0.9100250,0.9266262,0.9422776,0.9557056,0.9656929,0.9713549,0.9723006,0.9686276,0.9607800,0.9493652,0.9351101,0.9188118,0.9008465,0.8814838,0.8612451,0.8408906,0.8212859,0.8034005,0.7880344,0.7756937,0.7667664,0.7615355,0.7599807,0.7615564,0.7654361,0.7706976,0.7766774,0.7831507,0.7903506,0.7987640,0.8088675,0.8208635,0.8344812,0.8490586,0.8636124,0.8770570,0.8885430,0.8976114,0.9043098,0.9090415,0.9121521,0.9133812,0.9118858,0.9071214,0.8991110,0.8880263,0.8741202,0.8578208,0.8396749,0.8203227,0.8005519,0.7811384,0.7626027,0.7455582,0.7311162,0.7203511,0.7134382,0.7094304,0.7065792,0.7029230,0.6969351,0.6880169,0.6767223,0.6646405,0.6538176,0.6460344,0.6425222,0.6438440,0.6495799,0.6586308,0.6696317,0.6813055,0.6926749,0.7030894,0.7121287,0.7196944,0.7256899,0.7303211,0.7342246,0.7381630,0.7427143,0.7479571,0.7533903,0.7581049,0.7613581,0.7633400,0.7648616,0.7664697,0.7680672,0.7690674,0.7687684,0.7666696,0.7626019,0.7566422,0.7488597,0.7392166,0.7277677,0.7146755,0.7000780,0.6844461,0.6686415,0.6537296,0.6407373,0.6304667,0.6235119,0.6206508,0.6225593,0.6288190,0.6375739,0.6464134,0.6530868,0.6560436,0.6549242,0.6506707,0.6449374,0.6393623,0.6347598,0.6312715,0.6293312,0.6296739,0.6328899,0.6391704,0.6482462,0.6595456,0.6724818,0.6866530,0.7016049,0.7160268,0.7280102,0.7358347,0.7383211,0.7351520,0.7270198,0.7155146,0.7027569,0.6908510,0.6813486,0.6751192,0.6724521,0.6734416,0.6778088,0.6847884,0.6931269,0.7012666,0.7077062,0.7115561,0.7127006,0.7114827,0.7084721,0.7045177,0.7003596,0.6966615,0.6940379,0.6929500,0.6938056,0.6970207,0.7028438,0.7111460,0.7218797,0.7354994,0.7517639,0.7695442,0.7872377,0.8030194,0.8152676,0.8228880,0.8254623,0.8232434,0.8170926,0.8084447,0.7994704,0.7925404,0.7891091,0.7891687,0.7911220,0.7924539,0.7907819,0.7847301,0.7743784,0.7611299,0.7473465,0.7355716,0.7278232,0.7257336,0.7302258,0.7409660,0.7563451,0.7739075,0.7909456,0.8053007,0.8160715,0.8231531,0.8265357,0.8262980,0.8228971,0.8170367,0.8094226,0.8005130,0.7904238,0.7790983,0.7669341,0.7546794,0.7431795,0.7333537,0.7259512
0.7435963,0.7492928,0.7523941,0.7531816,0.7527514,0.7525996,0.7543263,0.7593270,0.7683340,0.7811781,0.7968460,0.8138278,0.8304764,0.8453360,0.8577911,0.8675681,0.8743437,0.8778368,0.8779180,0.8747702,0.8689501,0.8612618,0.8525408,0.8434856,0.8346086,0.8267058,0.8204793,0.8160123,0.8130981,0.8113856,0.8105579,0.8104327,0.8110956,0.8128914,0.8160700,0.8206977,0.8265872,0.8330598,0.8395758,0.8459632,0.8525075,0.8599950,0.8693647,0.8811286,0.8951912,0.9111428,0.9281380,0.9449489,0.9601318,0.9722130,0.9800244,0.9829349,0.9808986,0.9743180,0.9638010,0.9499803,0.9334859,0.9147946,0.8943351,0.8727517,0.8509279,0.8299180,0.8108201,0.7944165,0.7811698,0.7714130,0.7653750,0.7629827,0.7636699,0.7664629,0.7704253,0.7751143,0.7806867,0.7877159,0.7968503,0.8085048,0.8226890,0.8388820,0.8561154,0.8731321,0.8886123,0.9015425,0.9114971,0.9186783,0.9235788,0.9265079,0.9271179,0.9247758,0.9191077,0.9102101,0.8985697,0.8846711,0.8689538,0.8517574,0.8333322,0.8139812,0.7941585,0.7743518,0.7552229,0.7380891,0.7243871,0.7146173,0.7080806,0.7031916,0.6980750,0.6911903,0.6818276,0.6703724,0.6582220,0.6472923,0.6393657,0.6356256,0.6363576,0.6410470,0.6487938,0.6585588,0.6693008,0.6801058,0.6903207,0.6994577,0.7073959,0.7140634,0.7194513,0.7240083,0.7284041,0.7331379,0.7382063,0.7431659,0.7474469,0.7507604,0.7534361,0.7560733,0.7588940,0.7615047,0.7631297,0.7629795,0.7605663,0.7558333,0.7490634,0.7405967,0.7307137,0.7196626,0.7073623,0.6937975,0.6794412,0.6651613,0.6519645,0.6406930,0.6318839,0.6258152,0.6228316,0.6234525,0.6275209,0.6335255,0.6393886,0.6431862,0.6436703,0.6407048,0.6352049,0.6287689,0.6231845,0.6193416,0.6171789,0.6167146,0.6184499,0.6228501,0.6300488,0.6397801,0.6515113,0.6647012,0.6789674,0.6937475,0.7077742,0.7192908,0.7265735,0.7285258,0.7249194,0.7164746,0.7047182,0.6916205,0.6791045,0.6685951,0.6608337,0.6562378,0.6553507,0.6585353,0.6654064,0.6746652,0.6844303,0.6928552,0.6986561,0.7012237,0.7005573,0.6970381,0.6914968,0.6849092,0.6782865,0.6726931,0.6692175,0.6688460,0.6721398,0.6789609,0.6885358,0.7004675,0.7151111,0.7323876,0.7511238,0.7696555,0.7861575,0.7990255,0.8072034,0.8103578,0.8088813,0.8037175,0.7962570,0.7886142,0.7831837,0.7814443,0.7832992,0.7869972,0.7898224,0.7891538,0.7834471,0.7727679,0.7587593,0.7440107,0.7311227,0.7221813,0.7190633,0.7227829,0.7330019,0.7480840,0.7654495,0.7822415,0.7961406,0.8061874,0.8126202,0.8160335,0.8167623,0.8152184,0.8118446,0.8069928,0.8007826,0.7929734,0.7833675,0.7723004,0.7602474,0.7478620,0.7360845,0.7258818
0.7440449,0.7503607,0.7534318,0.7536502,0.7523871,0.7515075,0.7527850,0.7577099,0.7670365,0.7805708,0.7972727,0.8154446,0.8331657,0.8488550,0.8620265,0.8726271,0.8802540,0.8844990,0.8851795,0.8824547,0.8768409,0.8690864,0.8599355,0.8499603,0.8397952,0.8305168,0.8227918,0.8168508,0.8128136,0.8106214,0.8101057,0.8110556,0.8133652,0.8171442,0.8225371,0.8294338,0.8373937,0.8454124,0.8526074,0.8586079,0.8638385,0.8694080,0.8765654,0.8862445,0.8987300,0.9138468,0.9308173,0.9482622,0.9646014,0.9781577,0.9875295,0.9918843,0.9910513,0.9853646,0.9754344,0.9619473,0.9454041,0.9261959,0.9050352,0.8827862,0.8604241,0.8390428,0.8197082,0.8030945,0.7895927,0.7794634,0.7728641,0.7696870,0.7692738,0.7705327,0.7726689,0.7755879,0.7798373,0.7862948,0.7957701,0.8086398,0.8246719,0.8430405,0.8624399,0.8813337,0.8982222,0.9120671,0.9225944,0.9300483,0.9348275,0.9370477,0.9364396,0.9327193,0.9258084,0.9158988,0.9037108,0.8899820,0.8752066,0.8595508,0.8428658,0.8248887,0.8055635,0.7851631,0.7646360,0.7456876,0.7299120,0.7180218,0.7095558,0.7031423,0.6970161,0.6896394,0.6802244,0.6689911,0.6570729,0.6461320,0.6378583,0.6332593,0.6324160,0.6349793,0.6404602,0.6482300,0.6574972,0.6674604,0.6775061,0.6871146,0.6960321,0.7040904,0.7109834,0.7167981,0.7219281,0.7266069,0.7307573,0.7342674,0.7372269,0.7398627,0.7426348,0.7458673,0.7494491,0.7527134,0.7546673,0.7544229,0.7515273,0.7460781,0.7386104,0.7297879,0.7201280,0.7099390,0.6989420,0.6870152,0.6745939,0.6624736,0.6515000,0.6422857,0.6351133,0.6300261,0.6270806,0.6266513,0.6287616,0.6322020,0.6352391,0.6362974,0.6344382,0.6296267,0.6226933,0.6152828,0.6093092,0.6058048,0.6045887,0.6052759,0.6080558,0.6132770,0.6210556,0.6311915,0.6433047,0.6569966,0.6717378,0.6865167,0.6999698,0.7107399,0.7173585,0.7187910,0.7148761,0.7063566,0.6946990,0.6817307,0.6691760,0.6582537,0.6495810,0.6436442,0.6414205,0.6437487,0.6504330,0.6601311,0.6708025,0.6803630,0.6871880,0.6902344,0.6892691,0.6846665,0.6773048,0.6683703,0.6591872,0.6513598,0.6466114,0.6462160,0.6505749,0.6590073,0.6702617,0.6835115,0.6988746,0.7164202,0.7351946,0.7536116,0.7699547,0.7827299,0.7910121,0.7946345,0.7941136,0.7904240,0.7848811,0.7795128,0.7765076,0.7770930,0.7810066,0.7864179,0.7905654,0.7907673,0.7853768,0.7744143,0.7596295,0.7438305,0.7296349,0.7192828,0.7147935,0.7172145,0.7262227,0.7401467,0.7563867,0.7720957,0.7849324,0.7938453,0.7992749,0.8022858,0.8034754,0.8032124,0.8017768,0.7993189,0.7955503,0.7898768,0.7819978,0.7720259,0.7601980,0.7470244,0.7334701,0.7207124
0.7438328,0.7505899,0.7534884,0.7530958,0.7510127,0.7493957,0.7501494,0.7548124,0.7642309,0.7783730,0.7961311,0.8155445,0.8343838,0.8508312,0.8643498,0.8751308,0.8829883,0.8875287,0.8885640,0.8862399,0.8810401,0.8736277,0.8646081,0.8544495,0.8438380,0.8339360,0.8254048,0.8186282,0.8140100,0.8117501,0.8117916,0.8138856,0.8177624,0.8233188,0.8306136,0.8395399,0.8494357,0.8589296,0.8667353,0.8723341,0.8762732,0.8798651,0.8847469,0.8923004,0.9031292,0.9171865,0.9337351,0.9512726,0.9681135,0.9824645,0.9927586,0.9979848,0.9977403,0.9922688,0.9823082,0.9687413,0.9521880,0.9329600,0.9117683,0.8896820,0.8678025,0.8472172,0.8287820,0.8129441,0.7999131,0.7898304,0.7828108,0.7787550,0.7769136,0.7762136,0.7761066,0.7768554,0.7793748,0.7848375,0.7942104,0.8078554,0.8253068,0.8453812,0.8664258,0.8866509,0.9044793,0.9190511,0.9301708,0.9379416,0.9424624,0.9436951,0.9415878,0.9361543,0.9276728,0.9165634,0.9037127,0.8901258,0.8763777,0.8624824,0.8479109,0.8318209,0.8135556,0.7931337,0.7717047,0.7514986,0.7344564,0.7214133,0.7120968,0.7052707,0.6991946,0.6922419,0.6834812,0.6729962,0.6617253,0.6510148,0.6423092,0.6363575,0.6332748,0.6330807,0.6357380,0.6410041,0.6483746,0.6572013,0.6669294,0.6770865,0.6872690,0.6970856,0.7058666,0.7132326,0.7189955,0.7230468,0.7254986,0.7268584,0.7279413,0.7293627,0.7316702,0.7349653,0.7387499,0.7421456,0.7440166,0.7434107,0.7399175,0.7337923,0.7258189,0.7169817,0.7080328,0.6991142,0.6897770,0.6798805,0.6698124,0.6602241,0.6517287,0.6446817,0.6391488,0.6350482,0.6323681,0.6313457,0.6320118,0.6333789,0.6340465,0.6327781,0.6288259,0.6221885,0.6137749,0.6052608,0.5985966,0.5949781,0.5941964,0.5955428,0.5988784,0.6044509,0.6124094,0.6227846,0.6354799,0.6500656,0.6655767,0.6804675,0.6932639,0.7029049,0.7084575,0.7091303,0.7048412,0.6963266,0.6849670,0.6724286,0.6602315,0.6494024,0.6404402,0.6338664,0.6308860,0.6325667,0.6388815,0.6485592,0.6594832,0.6694158,0.6764488,0.6792213,0.6773304,0.6712886,0.6621230,0.6511976,0.6401857,0.6312557,0.6264556,0.6270159,0.6329432,0.6431890,0.6561722,0.6706235,0.6863537,0.7035248,0.7215513,0.7390797,0.7546023,0.7668262,0.7750642,0.7793546,0.7802662,0.7786482,0.7756248,0.7730781,0.7729442,0.7761268,0.7821057,0.7889720,0.7940065,0.7946300,0.7892888,0.7780709,0.7626879,0.7459164,0.7304091,0.7185977,0.7125651,0.7133250,0.7205058,0.7324595,0.7467044,0.7605563,0.7717888,0.7792710,0.7835133,0.7858158,0.7869627,0.7873742,0.7873803,0.7868610,0.7851212,0.7813417,0.7749840,0.7658995,0.7541988,0.7403362,0.7253132,0.7104556
0.7447523,0.7517706,0.7543114,0.7531727,0.7501878,0.7477072,0.7477047,0.7517914,0.7610646,0.7755724,0.7940961,0.8144835,0.8342176,0.8511771,0.8646775,0.8750884,0.8826409,0.8871197,0.8884197,0.8866961,0.8823313,0.8758067,0.8675620,0.8580143,0.8479563,0.8383776,0.8298045,0.8227799,0.8179568,0.8157995,0.8163769,0.8194251,0.8245508,0.8314937,0.8402089,0.8506537,0.8620173,0.8725643,0.8806354,0.8855869,0.8880059,0.8895046,0.8921341,0.8976398,0.9068780,0.9198076,0.9356460,0.9528036,0.9695353,0.9840386,0.9946295,1.0000000,0.9995682,0.9936338,0.9831124,0.9691437,0.9525977,0.9338618,0.9134715,0.8925038,0.8721060,0.8533206,0.8367425,0.8225045,0.8105784,0.8009318,0.7935978,0.7885011,0.7849151,0.7819388,0.7793224,0.7776686,0.7782038,0.7823411,0.7911955,0.8051471,0.8235680,0.8449100,0.8671635,0.8883331,0.9069575,0.9223795,0.9343101,0.9425158,0.9467836,0.9470723,0.9434953,0.9363050,0.9260937,0.9135913,0.8998573,0.8861498,0.8731549,0.8607714,0.8480862,0.8337000,0.8165011,0.7963975,0.7745656,0.7534900,0.7356845,0.7223335,0.7132737,0.7072829,0.7025574,0.6973065,0.6903351,0.6814240,0.6713161,0.6612357,0.6522995,0.6450346,0.6397246,0.6367227,0.6364057,0.6389339,0.6441207,0.6515078,0.6606055,0.6710356,0.6823278,0.6938080,0.7043819,0.7130134,0.7188663,0.7216598,0.7218949,0.7208078,0.7197545,0.7196722,0.7211300,0.7240532,0.7275893,0.7306592,0.7320567,0.7308281,0.7266447,0.7199276,0.7116770,0.7030857,0.6950858,0.6877113,0.6802555,0.6725322,0.6649190,0.6579390,0.6519855,0.6471586,0.6433047,0.6402652,0.6381103,0.6370405,0.6369279,0.6368779,0.6357653,0.6325824,0.6267594,0.6184699,0.6087096,0.5991282,0.5916093,0.5874540,0.5865405,0.5879597,0.5913131,0.5967862,0.6047083,0.6154463,0.6289783,0.6445957,0.6607593,0.6755878,0.6875060,0.6956504,0.6996283,0.6991025,0.6941655,0.6855765,0.6745989,0.6626856,0.6511072,0.6406625,0.6317424,0.6249594,0.6216154,0.6228628,0.6287720,0.6381586,0.6489477,0.6588005,0.6655605,0.6676822,0.6646663,0.6571289,0.6463794,0.6340145,0.6221256,0.6131965,0.6092423,0.6111837,0.6187310,0.6306140,0.6450377,0.6603838,0.6761214,0.6924592,0.7092043,0.7253570,0.7397036,0.7512877,0.7597442,0.7652196,0.7681662,0.7691741,0.7691146,0.7696112,0.7722809,0.7777603,0.7853691,0.7931719,0.7985314,0.7990442,0.7933670,0.7817754,0.7660646,0.7487505,0.7322991,0.7192849,0.7117550,0.7106340,0.7155344,0.7249255,0.7365495,0.7479800,0.7571942,0.7630940,0.7661169,0.7675807,0.7683280,0.7690128,0.7699980,0.7708984,0.7707721,0.7685307,0.7632894,0.7546983,0.7428751,0.7283344,0.7121806,0.6958553
0.7480872,0.7552121,0.7572471,0.7551981,0.7511712,0.7476308,0.7465758,0.7498207,0.7586224,0.7730196,0.7917394,0.8124992,0.8325768,0.8496282,0.8627463,0.8724276,0.8793764,0.8837054,0.8854215,0.8846531,0.8816322,0.8766809,0.8700701,0.8621109,0.8536260,0.8453307,0.8375247,0.8307773,0.8259480,0.8238020,0.8246122,0.8281760,0.8340504,0.8418710,0.8514826,0.8627331,0.8747489,0.8854975,0.8930504,0.8966938,0.8972120,0.8965270,0.8969867,0.9006120,0.9084388,0.9203497,0.9353765,0.9518457,0.9680166,0.9821525,0.9923656,0.9971505,0.9959300,0.9891036,0.9777715,0.9633435,0.9469574,0.9291421,0.9102504,0.8911687,0.8730147,0.8567025,0.8425532,0.8303836,0.8198935,0.8108858,0.8033121,0.7970947,0.7915838,0.7861535,0.7809316,0.7768748,0.7754764,0.7782949,0.7864752,0.8003700,0.8193074,0.8415340,0.8646898,0.8866531,0.9061965,0.9227060,0.9356238,0.9443923,0.9486303,0.9482639,0.9435235,0.9348425,0.9229969,0.9090008,0.8941201,0.8798459,0.8670016,0.8553683,0.8437127,0.8303103,0.8138718,0.7942532,0.7724528,0.7509980,0.7328784,0.7197657,0.7116621,0.7073808,0.7050295,0.7026083,0.6985745,0.6922968,0.6841856,0.6753467,0.6667833,0.6588167,0.6518237,0.6464240,0.6433664,0.6432088,0.6460965,0.6517789,0.6598462,0.6699782,0.6817719,0.6943092,0.7059847,0.7149977,0.7200935,0.7210805,0.7189431,0.7153971,0.7122143,0.7105991,0.7110648,0.7133641,0.7163759,0.7188436,0.7195519,0.7175901,0.7127508,0.7056278,0.6973422,0.6891491,0.6820599,0.6761598,0.6706131,0.6650428,0.6597541,0.6551948,0.6516351,0.6490176,0.6470440,0.6454358,0.6441888,0.6435280,0.6431928,0.6422500,0.6397726,0.6350214,0.6276835,0.6180957,0.6072950,0.5968504,0.5884956,0.5834939,0.5819106,0.5828145,0.5857008,0.5908065,0.5987479,0.6100019,0.6243630,0.6406495,0.6569514,0.6712413,0.6818768,0.6881387,0.6900759,0.6878988,0.6819586,0.6730713,0.6623927,0.6511298,0.6402014,0.6301263,0.6212837,0.6144133,0.6108706,0.6118324,0.6174204,0.6265192,0.6371423,0.6469604,0.6535847,0.6552440,0.6513571,0.6426421,0.6307258,0.6175733,0.6056248,0.5973563,0.5945306,0.5978066,0.6066797,0.6197205,0.6350333,0.6508385,0.6662822,0.6815598,0.6968189,0.7114601,0.7246664,0.7359226,0.7450924,0.7522891,0.7577270,0.7617223,0.7648301,0.7682700,0.7733602,0.7805428,0.7890575,0.7970639,0.8021174,0.8020657,0.7958340,0.7838969,0.7681021,0.7506911,0.7338091,0.7199157,0.7110305,0.7080450,0.7106104,0.7173150,0.7261047,0.7348274,0.7417542,0.7460208,0.7479348,0.7485879,0.7488639,0.7496632,0.7513176,0.7532985,0.7544157,0.7532339,0.7485875,0.7399947,0.7277015,0.7124139,0.6953957,0.6781992
0.7541317,0.7612397,0.7627168,0.7596792,0.7545018,0.7497179,0.7474032,0.7495648,0.7574968,0.7712347,0.7894567,0.8097878,0.8294449,0.8460255,0.8584438,0.8672374,0.8735175,0.8777795,0.8801545,0.8807458,0.8797451,0.8772718,0.8732750,0.8679317,0.8618970,0.8555996,0.8491760,0.8431586,0.8384978,0.8361912,0.8368035,0.8403143,0.8463501,0.8545119,0.8644611,0.8757571,0.8872963,0.8969657,0.9028617,0.9044262,0.9026615,0.8997039,0.8981132,0.9000810,0.9067382,0.9178717,0.9322018,0.9479126,0.9633202,0.9766899,0.9859892,0.9897284,0.9874123,0.9795615,0.9674946,0.9528432,0.9369403,0.9204154,0.9034716,0.8867074,0.8711282,0.8574618,0.8457842,0.8356745,0.8265868,0.8181432,0.8102476,0.8028572,0.7954474,0.7876700,0.7800030,0.7737745,0.7707445,0.7725730,0.7803437,0.7942369,0.8134144,0.8361083,0.8598934,0.8826179,0.9031827,0.9208589,0.9348659,0.9444283,0.9490023,0.9484532,0.9430691,0.9334120,0.9202906,0.9048664,0.8886103,0.8732327,0.8596811,0.8476850,0.8359212,0.8226414,0.8066088,0.7875134,0.7660996,0.7447960,0.7268258,0.7143395,0.7075736,0.7054238,0.7059677,0.7070139,0.7066812,0.7039496,0.6988588,0.6922081,0.6848103,0.6770049,0.6691737,0.6620642,0.6566849,0.6539546,0.6543995,0.6580723,0.6646792,0.6738443,0.6851953,0.6976869,0.7091932,0.7173931,0.7209217,0.7198203,0.7153674,0.7095716,0.7044913,0.7015270,0.7010896,0.7027165,0.7050945,0.7068583,0.7068463,0.7042784,0.6991086,0.6919580,0.6838965,0.6761339,0.6697324,0.6649325,0.6609595,0.6572445,0.6539670,0.6515211,0.6501262,0.6496772,0.6497887,0.6500381,0.6502298,0.6503496,0.6500114,0.6484871,0.6450429,0.6391781,0.6307966,0.6203698,0.6089521,0.5979941,0.5890103,0.5830831,0.5804162,0.5803101,0.5823784,0.5870549,0.5950716,0.6067321,0.6214241,0.6376241,0.6532893,0.6663682,0.6752248,0.6792377,0.6787966,0.6746167,0.6673767,0.6579699,0.6474304,0.6366271,0.6261257,0.6162732,0.6075135,0.6006022,0.5969101,0.5976402,0.6029705,0.6118639,0.6224411,0.6324140,0.6393153,0.6411703,0.6371988,0.6280637,0.6155975,0.6022238,0.5906332,0.5831918,0.5814082,0.5856827,0.5953323,0.6088536,0.6243591,0.6401020,0.6550482,0.6692888,0.6832011,0.6965640,0.7090322,0.7204496,0.7307806,0.7400015,0.7480994,0.7551343,0.7612760,0.7672704,0.7741638,0.7823136,0.7909833,0.7985286,0.8028075,0.8019809,0.7952027,0.7830330,0.7672661,0.7498875,0.7329123,0.7184999,0.7085301,0.7039350,0.7044439,0.7087731,0.7150404,0.7212808,0.7259983,0.7286480,0.7296410,0.7297018,0.7297287,0.7307687,0.7331140,0.7360272,0.7380257,0.7374058,0.7328189,0.7237269,0.7105695,0.6943931,0.6766769,0.6590586
0.7622664,0.7690583,0.7699517,0.7660580,0.7598002,0.7537600,0.7501643,0.7511272,0.7579263,0.7705231,0.7875383,0.8066104,0.8250256,0.8404794,0.8518414,0.8596571,0.8653053,0.8696191,0.8728776,0.8753289,0.8771089,0.8779735,0.8775406,0.8757437,0.8728324,0.8689844,0.8642389,0.8591318,0.8546882,0.8520517,0.8520712,0.8550008,0.8606375,0.8685943,0.8783238,0.8890169,0.8991850,0.9067483,0.9100893,0.9089147,0.9044389,0.8990100,0.8953833,0.8958743,0.9016102,0.9122188,0.9261166,0.9412410,0.9559234,0.9683463,0.9765074,0.9790341,0.9755843,0.9668887,0.9544633,0.9400650,0.9250828,0.9101512,0.8953341,0.8809499,0.8678078,0.8564442,0.8468001,0.8383181,0.8302302,0.8219948,0.8135217,0.8048598,0.7956700,0.7858739,0.7762495,0.7684014,0.7642963,0.7656655,0.7734923,0.7877136,0.8071996,0.8300202,0.8539555,0.8772071,0.8986845,0.9175103,0.9327090,0.9433215,0.9486624,0.9485079,0.9431230,0.9331215,0.9192720,0.9026731,0.8849335,0.8679530,0.8528147,0.8393845,0.8265318,0.8127519,0.7968110,0.7782132,0.7574911,0.7368086,0.7193963,0.7077565,0.7024271,0.7024447,0.7059020,0.7104955,0.7141635,0.7155476,0.7142616,0.7106976,0.7053186,0.6984636,0.6906190,0.6825658,0.6754076,0.6703018,0.6681221,0.6692912,0.6737987,0.6813081,0.6912209,0.7023507,0.7123267,0.7186855,0.7200844,0.7167289,0.7100976,0.7023818,0.6957802,0.6917833,0.6906965,0.6917762,0.6935591,0.6946654,0.6940819,0.6912816,0.6862847,0.6795803,0.6720173,0.6646840,0.6586759,0.6544499,0.6514440,0.6490143,0.6471941,0.6463841,0.6468156,0.6483759,0.6506343,0.6530356,0.6551355,0.6564905,0.6564639,0.6546979,0.6507929,0.6444012,0.6355533,0.6247896,0.6131549,0.6020072,0.5926796,0.5860036,0.5820942,0.5806569,0.5816935,0.5858417,0.5936880,0.6051658,0.6193402,0.6345326,0.6486856,0.6598332,0.6664535,0.6679740,0.6650128,0.6586770,0.6499803,0.6398979,0.6292744,0.6186787,0.6084336,0.5988233,0.5902766,0.5834420,0.5796206,0.5800463,0.5850018,0.5936094,0.6041649,0.6144300,0.6219267,0.6246034,0.6214426,0.6128541,0.6006156,0.5874899,0.5764490,0.5698056,0.5688344,0.5736875,0.5835266,0.5968317,0.6118318,0.6269685,0.6412871,0.6547276,0.6677183,0.6803370,0.6926210,0.7046217,0.7162980,0.7275138,0.7380802,0.7477892,0.7564759,0.7644050,0.7723627,0.7807206,0.7888809,0.7954757,0.7987539,0.7971520,0.7899725,0.7777939,0.7621899,0.7449751,0.7281298,0.7135875,0.7029517,0.6971520,0.6960281,0.6984576,0.7027296,0.7070449,0.7101024,0.7115210,0.7118184,0.7116726,0.7119511,0.7136236,0.7168048,0.7205253,0.7230718,0.7225656,0.7175727,0.7075737,0.6931928,0.6759190,0.6575277,0.6397179
0.7712311,0.7772671,0.7774029,0.7728764,0.7659494,0.7590021,0.7544268,0.7543403,0.7598994,0.7709669,0.7861491,0.8031791,0.8195390,0.8331701,0.8430883,0.8498332,0.8549189,0.8593772,0.8637582,0.8685308,0.8736387,0.8784886,0.8823747,0.8847308,0.8853278,0.8841369,0.8811526,0.8769342,0.8725880,0.8694041,0.8684735,0.8703822,0.8752038,0.8826401,0.8919163,0.9017180,0.9102150,0.9153914,0.9158834,0.9116680,0.9042324,0.8961436,0.8903319,0.8892405,0.8940436,0.9042245,0.9178941,0.9327140,0.9468587,0.9583926,0.9654290,0.9668298,0.9625167,0.9534449,0.9412556,0.9277076,0.9141088,0.9009811,0.8882352,0.8759440,0.8646862,0.8549063,0.8465488,0.8389468,0.8311954,0.8226664,0.8132670,0.8032056,0.7924032,0.7810125,0.7700326,0.7612623,0.7567800,0.7583052,0.7666646,0.7815194,0.8014551,0.8243719,0.8481727,0.8715921,0.8937848,0.9136557,0.9300111,0.9417378,0.9480611,0.9487106,0.9439003,0.9341560,0.9201522,0.9027886,0.8836699,0.8648343,0.8475870,0.8321422,0.8177704,0.8031649,0.7870983,0.7689778,0.7491877,0.7295024,0.7129586,0.7022458,0.6982053,0.7000411,0.7059465,0.7136894,0.7211136,0.7265796,0.7293157,0.7292881,0.7265787,0.7213593,0.7141887,0.7058406,0.6974254,0.6902288,0.6853858,0.6836716,0.6854159,0.6904990,0.6982557,0.7070907,0.7145273,0.7182261,0.7170209,0.7113080,0.7026926,0.6934267,0.6857239,0.6810521,0.6796111,0.6803630,0.6816931,0.6823040,0.6814787,0.6789151,0.6745703,0.6686714,0.6618160,0.6549487,0.6491194,0.6449847,0.6422960,0.6404814,0.6394738,0.6397106,0.6414864,0.6447354,0.6490050,0.6536544,0.6579661,0.6609604,0.6617708,0.6602475,0.6564526,0.6502208,0.6416092,0.6311237,0.6197316,0.6086770,0.5991537,0.5918623,0.5868463,0.5839755,0.5837671,0.5869879,0.5940006,0.6044375,0.6171538,0.6304136,0.6422370,0.6508263,0.6548832,0.6538811,0.6485139,0.6401321,0.6300206,0.6192028,0.6083722,0.5979077,0.5880040,0.5788740,0.5708013,0.5642324,0.5602736,0.5602000,0.5644942,0.5725372,0.5828561,0.5933032,0.6014272,0.6051178,0.6031480,0.5957071,0.5844593,0.5722315,0.5621163,0.5563424,0.5560214,0.5611220,0.5706996,0.5832711,0.5972502,0.6113618,0.6249274,0.6378954,0.6505318,0.6630255,0.6755853,0.6883312,0.7012254,0.7140601,0.7264919,0.7381107,0.7485308,0.7576303,0.7659203,0.7738428,0.7810296,0.7864352,0.7886921,0.7864988,0.7792755,0.7674470,0.7522760,0.7355235,0.7191219,0.7048548,0.6940464,0.6875307,0.6852589,0.6862900,0.6891131,0.6921528,0.6942905,0.6951709,0.6951796,0.6950281,0.6958671,0.6984619,0.7026320,0.7071450,0.7100733,0.7094010,0.7036724,0.6924807,0.6766565,0.6580716,0.6388876,0.6208615
0.7793594,0.7843412,0.7836835,0.7787746,0.7717128,0.7644856,0.7593812,0.7584795,0.7628239,0.7721697,0.7851142,0.7995295,0.8131852,0.8244001,0.8325040,0.8380813,0.8426288,0.8472892,0.8529921,0.8603181,0.8690378,0.8782580,0.8867620,0.8934192,0.8975327,0.8989038,0.8975673,0.8941346,0.8897824,0.8859169,0.8838642,0.8845858,0.8885489,0.8954872,0.9042888,0.9131430,0.9200466,0.9230200,0.9209720,0.9140771,0.9039787,0.8934119,0.8854435,0.8826147,0.8861651,0.8955752,0.9088187,0.9233947,0.9371345,0.9479444,0.9541155,0.9547901,0.9501678,0.9413939,0.9301312,0.9180276,0.9062080,0.8949842,0.8840703,0.8733163,0.8631478,0.8540826,0.8461094,0.8385326,0.8304342,0.8211189,0.8104773,0.7989193,0.7867052,0.7741904,0.7624832,0.7534646,0.7492218,0.7513812,0.7606020,0.7763670,0.7970365,0.8203394,0.8441673,0.8674695,0.8898730,0.9103854,0.9276173,0.9402813,0.9475048,0.9489745,0.9448798,0.9356909,0.9219364,0.9042911,0.8842163,0.8638148,0.8446854,0.8274207,0.8116001,0.7961317,0.7798839,0.7622656,0.7435608,0.7251596,0.7097191,0.6999296,0.6968272,0.6998164,0.7073400,0.7173290,0.7276388,0.7365031,0.7428224,0.7461689,0.7463143,0.7431790,0.7372439,0.7292245,0.7201342,0.7112923,0.7040195,0.6993842,0.6980665,0.7002298,0.7052310,0.7112277,0.7154930,0.7159171,0.7117526,0.7036661,0.6933569,0.6830189,0.6747068,0.6697136,0.6681225,0.6687280,0.6697661,0.6701154,0.6693959,0.6674052,0.6639484,0.6590277,0.6530250,0.6466999,0.6410019,0.6367123,0.6339059,0.6321483,0.6313641,0.6320772,0.6346898,0.6391663,0.6451045,0.6518392,0.6583160,0.6631477,0.6652944,0.6646341,0.6615621,0.6561912,0.6485563,0.6390406,0.6284343,0.6177956,0.6081621,0.6001958,0.5940648,0.5898284,0.5881283,0.5898407,0.5952290,0.6037551,0.6141676,0.6247359,0.6336084,0.6392117,0.6405363,0.6372009,0.6298103,0.6197701,0.6085160,0.5971234,0.5862256,0.5761196,0.5669085,0.5586268,0.5513324,0.5452267,0.5411303,0.5403327,0.5435898,0.5506287,0.5602312,0.5704044,0.5786755,0.5828717,0.5818174,0.5756648,0.5659488,0.5553075,0.5467115,0.5422431,0.5427476,0.5480427,0.5571612,0.5687344,0.5814274,0.5943108,0.6070440,0.6197393,0.6324666,0.6452591,0.6582952,0.6716970,0.6854073,0.6991623,0.7125328,0.7250090,0.7361190,0.7455686,0.7535889,0.7606764,0.7667184,0.7709787,0.7724325,0.7700582,0.7632657,0.7521826,0.7378912,0.7220737,0.7065716,0.6930241,0.6825438,0.6758196,0.6728929,0.6730105,0.6749208,0.6772742,0.6790147,0.6797628,0.6797301,0.6796226,0.6808762,0.6843319,0.6895035,0.6948265,0.6981442,0.6973180,0.6908775,0.6785193,0.6612924,0.6413472,0.6211875,0.6027263
0.7852240,0.7891231,0.7878215,0.7827370,0.7757563,0.7686584,0.7634514,0.7619966,0.7652361,0.7728676,0.7835305,0.7952521,0.8060594,0.8146105,0.8206215,0.8249235,0.8289038,0.8338072,0.8409035,0.8508422,0.8632111,0.8766979,0.8895675,0.9001844,0.9074432,0.9109917,0.9110050,0.9082066,0.9038514,0.8994209,0.8964471,0.8962706,0.8996511,0.9062477,0.9145436,0.9224645,0.9279748,0.9291746,0.9251873,0.9163978,0.9044698,0.8921338,0.8824480,0.8779546,0.8799274,0.8879370,0.9000801,0.9140279,0.9273654,0.9377768,0.9436009,0.9441726,0.9399256,0.9321263,0.9224041,0.9122231,0.9024339,0.8930846,0.8836270,0.8737445,0.8638866,0.8547101,0.8463176,0.8380999,0.8291361,0.8186867,0.8066443,0.7935985,0.7802018,0.7670099,0.7551410,0.7464334,0.7428864,0.7460164,0.7563853,0.7732994,0.7949251,0.8189016,0.8429642,0.8660236,0.8880206,0.9084060,0.9258349,0.9389339,0.9467128,0.9487621,0.9452057,0.9364698,0.9230472,0.9055671,0.8853561,0.8643641,0.8442684,0.8258850,0.8090678,0.7929904,0.7767073,0.7596922,0.7421642,0.7252572,0.7111083,0.7021620,0.6995136,0.7028202,0.7108390,0.7217663,0.7336458,0.7447055,0.7535940,0.7595696,0.7622166,0.7612309,0.7568821,0.7497452,0.7406514,0.7308525,0.7217499,0.7146482,0.7105081,0.7096708,0.7115042,0.7142100,0.7150659,0.7120753,0.7048860,0.6945268,0.6828473,0.6719467,0.6636040,0.6587528,0.6571777,0.6576136,0.6583901,0.6586080,0.6581009,0.6567039,0.6541441,0.6502570,0.6452260,0.6396258,0.6342561,0.6298850,0.6268317,0.6248306,0.6238998,0.6246889,0.6276599,0.6328459,0.6399710,0.6483032,0.6565253,0.6631124,0.6668681,0.6675836,0.6658042,0.6619103,0.6558927,0.6479507,0.6386091,0.6286556,0.6189422,0.6101562,0.6027131,0.5970583,0.5937841,0.5935185,0.5965695,0.6024512,0.6099533,0.6174257,0.6231401,0.6256886,0.6243120,0.6189327,0.6100843,0.5989995,0.5871328,0.5756236,0.5651186,0.5558620,0.5478083,0.5407526,0.5344984,0.5290270,0.5248342,0.5231435,0.5250044,0.5304988,0.5386811,0.5476570,0.5549753,0.5586725,0.5578646,0.5528313,0.5449250,0.5364214,0.5299173,0.5272767,0.5290569,0.5348623,0.5436922,0.5543294,0.5657414,0.5773801,0.5892398,0.6015813,0.6144164,0.6275992,0.6411096,0.6549476,0.6689688,0.6828395,0.6960917,0.7082379,0.7188939,0.7278548,0.7352069,0.7413809,0.7464343,0.7498951,0.7510100,0.7489336,0.7429676,0.7330878,0.7202235,0.7059027,0.6918180,0.6794456,0.6697421,0.6632640,0.6601143,0.6597513,0.6611336,0.6630035,0.6644486,0.6651326,0.6651272,0.6651143,0.6665792,0.6704995,0.6763063,0.6822047,0.6858282,0.6849212,0.6780071,0.6648660,0.6466699,0.6257171,0.6046714,0.5856703
0.7874837,0.7904474,0.7887440,0.7836885,0.7769234,0.7701728,0.7652112,0.7634853,0.7657896,0.7718368,0.7803812,0.7896504,0.7979292,0.8041307,0.8081992,0.8111899,0.8145894,0.8198041,0.8283080,0.8406955,0.8562975,0.8734207,0.8899018,0.9037073,0.9134289,0.9185845,0.9195479,0.9172532,0.9130451,0.9084500,0.9051513,0.9046725,0.9078258,0.9140685,0.9217075,0.9286448,0.9329405,0.9328796,0.9277425,0.9180665,0.9054099,0.8923088,0.8816345,0.8757938,0.8760255,0.8820829,0.8925117,0.9053721,0.9181890,0.9284618,0.9345018,0.9356850,0.9325014,0.9262046,0.9183338,0.9101991,0.9024262,0.8947407,0.8863092,0.8767472,0.8666621,0.8568701,0.8476323,0.8384196,0.8283373,0.8166607,0.8032997,0.7889523,0.7746263,0.7611145,0.7494911,0.7414709,0.7389332,0.7432792,0.7549148,0.7729855,0.7956132,0.8203413,0.8446736,0.8673412,0.8884219,0.9078848,0.9246822,0.9374741,0.9452278,0.9474385,0.9441256,0.9356675,0.9226211,0.9057553,0.8863327,0.8659490,0.8460784,0.8275453,0.8103844,0.7940595,0.7779351,0.7616505,0.7453746,0.7300220,0.7172607,0.7090439,0.7063690,0.7091303,0.7164508,0.7269281,0.7388818,0.7506124,0.7606778,0.7681287,0.7724692,0.7732914,0.7706117,0.7647719,0.7563542,0.7464515,0.7364939,0.7278925,0.7216767,0.7181725,0.7167840,0.7159713,0.7133550,0.7071456,0.6972541,0.6850010,0.6723692,0.6613612,0.6534464,0.6491204,0.6477413,0.6478578,0.6481160,0.6480414,0.6475893,0.6466231,0.6448330,0.6419806,0.6381036,0.6335587,0.6289224,0.6248320,0.6216752,0.6194007,0.6182376,0.6189342,0.6219136,0.6273342,0.6350076,0.6441612,0.6535130,0.6615400,0.6669284,0.6692947,0.6691880,0.6671675,0.6631848,0.6571869,0.6493772,0.6402425,0.6304501,0.6207152,0.6118050,0.6045399,0.5995262,0.5971076,0.5974660,0.6002776,0.6045517,0.6088402,0.6115759,0.6114617,0.6078204,0.6007559,0.5909795,0.5795538,0.5678079,0.5568925,0.5474445,0.5396149,0.5331670,0.5276427,0.5226044,0.5178540,0.5136403,0.5110133,0.5112215,0.5146261,0.5204739,0.5269567,0.5319634,0.5340075,0.5326544,0.5283590,0.5222813,0.5162449,0.5123081,0.5119554,0.5154563,0.5221780,0.5310710,0.5410616,0.5513994,0.5618286,0.5726408,0.5843017,0.5969346,0.6103039,0.6241306,0.6381550,0.6520548,0.6654004,0.6777062,0.6885596,0.6977638,0.7054122,0.7117974,0.7172138,0.7216900,0.7248984,0.7261926,0.7247905,0.7200405,0.7118401,0.7009371,0.6886357,0.6764244,0.6656069,0.6570155,0.6511179,0.6480841,0.6475089,0.6483999,0.6497108,0.6507612,0.6512562,0.6512512,0.6513469,0.6528904,0.6568793,0.6628105,0.6687984,0.6724000,0.6713419,0.6641875,0.6507737,0.6323309,0.6111758,0.5898868,0.5706244
0.7851487,0.7875080,0.7858025,0.7810506,0.7747509,0.7685855,0.7641157,0.7624058,0.7640227,0.7687242,0.7754409,0.7826634,0.7889514,0.7934330,0.7961879,0.7982965,0.8012644,0.8068351,0.8165195,0.8307758,0.8487220,0.8683979,0.8873500,0.9032802,0.9145983,0.9207633,0.9223200,0.9205006,0.9167304,0.9125210,0.9095486,0.9092749,0.9123127,0.9180222,0.9247842,0.9306127,0.9337743,0.9328911,0.9274085,0.9179137,0.9057433,0.8930514,0.8823149,0.8756071,0.8741240,0.8779789,0.8864248,0.8979439,0.9101514,0.9204443,0.9270342,0.9293286,0.9277151,0.9232627,0.9173131,0.9109986,0.9047882,0.8982676,0.8904640,0.8809808,0.8705537,0.8600808,0.8499321,0.8397038,0.8285803,0.8158879,0.8015547,0.7863078,0.7713408,0.7577309,0.7465504,0.7394135,0.7380317,0.7436063,0.7563654,0.7754232,0.7988934,0.8241667,0.8485742,0.8706037,0.8903527,0.9082253,0.9236595,0.9354671,0.9426278,0.9445691,0.9412594,0.9330934,0.9206945,0.9049698,0.8870754,0.8682440,0.8496263,0.8319161,0.8151518,0.7989969,0.7831235,0.7674286,0.7521973,0.7382358,0.7268190,0.7192715,0.7162848,0.7179115,0.7236390,0.7324565,0.7430146,0.7538379,0.7635639,0.7711793,0.7761498,0.7781248,0.7769303,0.7726218,0.7654907,0.7564726,0.7469228,0.7381118,0.7308788,0.7253748,0.7210962,0.7169170,0.7110007,0.7019146,0.6897582,0.6760653,0.6628983,0.6521173,0.6448529,0.6411613,0.6400254,0.6398502,0.6395174,0.6389667,0.6383809,0.6376285,0.6364308,0.6345252,0.6318460,0.6285932,0.6251474,0.6218875,0.6190165,0.6166791,0.6154042,0.6159739,0.6187613,0.6239462,0.6314217,0.6406121,0.6504195,0.6594184,0.6662582,0.6703278,0.6720538,0.6720366,0.6701703,0.6661451,0.6598753,0.6515609,0.6416455,0.6309162,0.6205201,0.6115118,0.6045861,0.5999661,0.5976230,0.5973799,0.5985164,0.5998601,0.6000565,0.5979110,0.5927343,0.5846155,0.5743582,0.5631903,0.5523468,0.5427926,0.5350394,0.5290949,0.5245354,0.5206969,0.5169311,0.5128854,0.5087232,0.5052677,0.5037176,0.5045689,0.5071140,0.5098740,0.5113742,0.5108002,0.5081673,0.5041160,0.4996512,0.4961311,0.4950064,0.4972527,0.5028128,0.5108106,0.5201386,0.5298124,0.5391964,0.5483271,0.5578480,0.5684873,0.5805964,0.5938824,0.6077597,0.6216915,0.6351163,0.6474744,0.6582871,0.6672747,0.6744843,0.6803344,0.6854592,0.6902238,0.6944642,0.6978520,0.6997815,0.6994844,0.6963516,0.6902447,0.6817256,0.6718248,0.6617798,0.6527246,0.6454064,0.6402733,0.6375327,0.6367318,0.6370115,0.6376227,0.6380943,0.6382392,0.6381718,0.6383580,0.6398763,0.6436257,0.6492157,0.6548153,0.6580392,0.6567157,0.6495059,0.6363088,0.6183807,0.5979225,0.5772749,0.5584884
0.7781433,0.7803956,0.7791133,0.7750414,0.7695912,0.7643277,0.7606014,0.7592015,0.7604553,0.7641708,0.7694952,0.7752146,0.7801725,0.7837618,0.7861574,0.7881958,0.7911174,0.7968683,0.8071267,0.8222506,0.8412380,0.8620189,0.8820319,0.8988789,0.9109014,0.9175670,0.9195397,0.9182741,0.9152516,0.9118809,0.9096268,0.9096833,0.9124947,0.9174476,0.9231044,0.9276745,0.9296889,0.9282448,0.9230428,0.9146380,0.9040347,0.8928418,0.8829083,0.8759034,0.8730391,0.8749292,0.8815088,0.8916912,0.9033150,0.9137929,0.9211969,0.9248646,0.9250169,0.9224674,0.9182821,0.9133654,0.9080620,0.9019590,0.8942422,0.8846391,0.8738663,0.8628529,0.8520518,0.8412025,0.8295562,0.8164338,0.8017305,0.7861633,0.7709301,0.7573270,0.7466166,0.7403552,0.7400367,0.7466315,0.7602767,0.7800483,0.8039512,0.8293111,0.8533964,0.8744682,0.8925479,0.9083643,0.9218760,0.9321706,0.9383026,0.9397307,0.9364343,0.9287811,0.9174558,0.9034030,0.8875952,0.8709736,0.8542562,0.8379311,0.8220245,0.8063264,0.7907219,0.7753637,0.7607457,0.7477473,0.7374501,0.7306054,0.7273912,0.7277743,0.7314420,0.7377435,0.7457350,0.7542978,0.7623126,0.7688656,0.7734184,0.7757533,0.7756594,0.7729272,0.7676086,0.7604950,0.7526541,0.7449602,0.7378358,0.7312378,0.7247812,0.7177763,0.7090179,0.6975284,0.6835882,0.6688428,0.6553763,0.6448827,0.6381969,0.6350726,0.6342197,0.6339839,0.6333020,0.6322293,0.6313237,0.6306509,0.6299498,0.6289135,0.6273866,0.6254573,0.6233869,0.6213465,0.6192723,0.6172487,0.6160694,0.6164633,0.6187707,0.6232314,0.6299278,0.6385305,0.6481799,0.6576264,0.6655815,0.6712355,0.6747603,0.6766429,0.6766574,0.6743135,0.6693600,0.6617068,0.6516393,0.6401007,0.6283991,0.6177239,0.6088862,0.6021249,0.5972773,0.5942588,0.5926410,0.5915389,0.5898118,0.5863651,0.5805100,0.5722427,0.5622861,0.5518988,0.5424893,0.5348410,0.5291656,0.5252356,0.5224552,0.5200538,0.5173224,0.5138645,0.5097812,0.5056823,0.5024693,0.5005006,0.4991294,0.4974459,0.4947755,0.4909718,0.4864946,0.4821877,0.4789480,0.4777107,0.4793340,0.4842343,0.4919810,0.5014710,0.5114979,0.5209701,0.5294052,0.5371830,0.5452628,0.5546961,0.5660859,0.5791063,0.5928342,0.6064036,0.6190482,0.6301012,0.6391117,0.6459709,0.6510037,0.6549341,0.6586101,0.6624703,0.6664441,0.6701909,0.6731184,0.6744171,0.6733579,0.6697217,0.6638704,0.6565616,0.6487806,0.6414940,0.6354263,0.6310621,0.6285370,0.6273611,0.6268943,0.6266552,0.6263945,0.6260890,0.6258986,0.6261486,0.6275681,0.6308762,0.6357745,0.6406069,0.6431751,0.6414992,0.6343624,0.6217783,0.6050119,0.5860084,0.5668821,0.5494776
0.7674345,0.7700197,0.7695462,0.7666039,0.7624423,0.7584449,0.7557564,0.7549732,0.7562496,0.7594443,0.7639262,0.7687791,0.7732589,0.7770007,0.7800394,0.7827245,0.7859252,0.7915373,0.8014379,0.8161116,0.8345862,0.8548532,0.8744344,0.8910068,0.9029644,0.9098032,0.9122002,0.9116377,0.9095580,0.9071721,0.9056417,0.9059136,0.9083050,0.9122466,0.9165292,0.9196760,0.9205047,0.9185769,0.9139903,0.9072526,0.8989494,0.8899647,0.8814430,0.8747221,0.8711461,0.8717934,0.8769956,0.8860661,0.8972279,0.9080249,0.9164418,0.9216402,0.9236137,0.9228674,0.9201488,0.9160851,0.9108638,0.9042138,0.8957566,0.8855339,0.8742477,0.8628263,0.8517799,0.8409573,0.8296566,0.8171137,0.8030404,0.7879562,0.7729649,0.7595147,0.7492137,0.7436795,0.7442289,0.7516540,0.7659140,0.7859290,0.8096644,0.8344781,0.8576975,0.8774709,0.8936525,0.9071711,0.9184299,0.9268670,0.9317287,0.9325846,0.9294061,0.9225491,0.9127387,0.9007963,0.8874451,0.8733301,0.8587982,0.8440713,0.8291834,0.8140390,0.7986820,0.7834951,0.7692095,0.7568722,0.7475050,0.7414191,0.7382312,0.7375417,0.7390349,0.7423506,0.7469897,0.7523047,0.7575680,0.7621022,0.7654398,0.7674265,0.7679626,0.7666972,0.7635942,0.7592095,0.7541242,0.7486255,0.7426840,0.7360599,0.7284254,0.7194382,0.7085309,0.6952178,0.6799764,0.6644751,0.6507507,0.6403747,0.6340185,0.6312173,0.6305638,0.6304518,0.6296634,0.6281864,0.6269056,0.6262660,0.6260505,0.6258958,0.6255445,0.6249727,0.6242949,0.6235061,0.6224048,0.6210267,0.6200759,0.6201750,0.6217412,0.6251452,0.6306605,0.6382004,0.6471613,0.6565205,0.6651277,0.6720997,0.6772424,0.6807542,0.6822413,0.6812105,0.6772936,0.6702048,0.6602173,0.6482658,0.6356294,0.6235803,0.6130447,0.6043492,0.5973214,0.5919373,0.5880511,0.5850627,0.5820577,0.5781106,0.5725321,0.5651182,0.5563353,0.5472796,0.5394174,0.5336338,0.5299136,0.5277385,0.5263097,0.5247922,0.5225417,0.5192821,0.5151418,0.5105563,0.5059884,0.5013797,0.4961977,0.4901113,0.4831983,0.4759742,0.4693525,0.4643861,0.4619035,0.4624836,0.4664730,0.4737612,0.4835477,0.4945192,0.5051941,0.5144198,0.5219338,0.5284003,0.5350847,0.5433405,0.5539851,0.5666769,0.5801796,0.5932405,0.6049114,0.6144642,0.6215311,0.6262095,0.6290627,0.6310056,0.6329800,0.6354704,0.6387144,0.6426162,0.6465961,0.6497697,0.6512466,0.6505524,0.6477286,0.6431808,0.6376409,0.6319930,0.6270031,0.6232193,0.6206679,0.6189211,0.6175618,0.6163716,0.6153308,0.6145498,0.6142040,0.6144987,0.6158027,0.6185915,0.6226222,0.6264826,0.6282522,0.6261453,0.6191519,0.6074602,0.5922500,0.5752244,0.5583466,0.5431610
0.7545578,0.7577963,0.7585058,0.7571106,0.7546319,0.7522367,0.7508801,0.7510274,0.7527499,0.7559471,0.7601874,0.7650039,0.7700181,0.7748632,0.7792222,0.7829243,0.7864506,0.7914731,0.7999719,0.8127683,0.8291318,0.8473075,0.8650807,0.8803543,0.8916583,0.8985049,0.9014840,0.9018407,0.9007880,0.8993399,0.8983767,0.8986230,0.9003084,0.9029419,0.9055570,0.9070549,0.9066118,0.9041457,0.9002069,0.8953044,0.8895345,0.8829914,0.8762380,0.8704255,0.8670311,0.8673143,0.8718510,0.8802582,0.8911240,0.9023051,0.9117989,0.9185393,0.9222444,0.9230810,0.9214076,0.9175132,0.9115308,0.9035199,0.8936196,0.8822376,0.8702098,0.8583814,0.8473610,0.8371005,0.8269382,0.8159737,0.8036338,0.7900749,0.7761273,0.7632751,0.7535076,0.7486847,0.7500127,0.7580306,0.7724601,0.7921125,0.8149738,0.8385246,0.8602601,0.8783927,0.8925840,0.9037925,0.9127206,0.9191784,0.9226889,0.9229430,0.9199525,0.9141164,0.9060864,0.8964677,0.8856490,0.8739834,0.8615843,0.8484602,0.8346605,0.8201657,0.8051399,0.7901910,0.7763994,0.7649411,0.7566007,0.7513213,0.7483084,0.7467169,0.7461353,0.7463685,0.7473063,0.7488032,0.7506226,0.7524686,0.7540751,0.7552908,0.7560358,0.7560320,0.7552863,0.7540318,0.7522862,0.7497586,0.7459622,0.7403955,0.7326996,0.7227427,0.7105018,0.6959879,0.6798801,0.6638127,0.6497249,0.6391494,0.6326574,0.6297245,0.6290653,0.6290497,0.6282493,0.6265342,0.6249591,0.6243623,0.6246582,0.6254379,0.6263355,0.6271558,0.6277930,0.6280730,0.6277410,0.6269722,0.6263114,0.6260571,0.6267255,0.6288815,0.6329979,0.6392090,0.6471271,0.6559239,0.6646304,0.6724550,0.6789218,0.6837797,0.6864733,0.6865698,0.6836395,0.6773362,0.6678328,0.6559223,0.6428230,0.6298374,0.6179848,0.6077024,0.5988921,0.5916034,0.5859336,0.5815597,0.5778683,0.5741047,0.5695389,0.5637385,0.5567743,0.5494095,0.5430090,0.5386145,0.5361899,0.5350479,0.5342655,0.5329891,0.5306600,0.5271351,0.5226675,0.5176733,0.5122129,0.5056468,0.4973929,0.4875440,0.4768509,0.4664580,0.4577106,0.4518577,0.4496863,0.4514859,0.4571953,0.4662934,0.4776838,0.4897594,0.5007835,0.5096525,0.5162937,0.5216210,0.5271653,0.5344714,0.5444980,0.5569139,0.5702199,0.5827766,0.5934733,0.6015580,0.6067721,0.6093627,0.6100546,0.6099126,0.6098771,0.6105511,0.6124983,0.6159551,0.6205331,0.6253567,0.6294087,0.6319127,0.6324135,0.6308890,0.6277233,0.6236343,0.6195043,0.6160029,0.6131410,0.6106339,0.6082981,0.6061526,0.6043636,0.6031395,0.6026462,0.6029812,0.6042268,0.6065631,0.6097574,0.6126551,0.6135842,0.6109921,0.6041682,0.5934256,0.5798492,0.5650834,0.5509157,0.5385711
0.7411233,0.7453264,0.7475238,0.7479807,0.7474664,0.7469153,0.7471268,0.7484946,0.7510554,0.7547396,0.7594435,0.7651325,0.7715305,0.7780565,0.7839575,0.7886682,0.7922810,0.7961488,0.8022774,0.8118984,0.8247341,0.8394665,0.8543099,0.8675058,0.8777967,0.8847621,0.8887351,0.8903934,0.8905160,0.8898980,0.8892140,0.8890410,0.8896002,0.8905419,0.8911737,0.8907766,0.8889171,0.8858079,0.8823006,0.8789904,0.8754945,0.8712884,0.8665552,0.8622704,0.8598316,0.8605396,0.8651134,0.8733800,0.8841910,0.8957212,0.9061552,0.9142506,0.9194250,0.9214603,0.9202959,0.9159878,0.9087497,0.8990474,0.8874363,0.8746524,0.8617553,0.8495672,0.8387274,0.8292982,0.8206887,0.8119000,0.8020608,0.7909158,0.7789554,0.7675139,0.7587489,0.7547201,0.7566398,0.7648928,0.7790361,0.7977888,0.8191572,0.8407810,0.8604310,0.8765575,0.8887740,0.8978645,0.9046249,0.9091840,0.9113405,0.9109541,0.9081592,0.9033630,0.8970658,0.8896214,0.8811220,0.8716267,0.8611038,0.8494629,0.8367647,0.8230420,0.8086250,0.7944481,0.7817663,0.7716657,0.7645748,0.7601946,0.7574700,0.7551695,0.7526997,0.7500239,0.7473555,0.7449901,0.7431726,0.7420359,0.7416072,0.7418331,0.7425245,0.7434858,0.7448837,0.7467047,0.7484818,0.7493800,0.7484421,0.7448541,0.7381380,0.7282386,0.7154803,0.7003457,0.6837142,0.6671634,0.6525195,0.6412758,0.6340417,0.6304847,0.6294565,0.6292640,0.6283872,0.6265383,0.6247883,0.6242653,0.6250906,0.6268320,0.6289925,0.6311432,0.6329422,0.6340341,0.6341779,0.6337690,0.6332425,0.6325948,0.6322630,0.6330290,0.6355944,0.6403192,0.6470167,0.6550124,0.6634371,0.6715917,0.6790334,0.6850865,0.6889987,0.6903782,0.6887502,0.6836406,0.6750723,0.6636933,0.6506295,0.6371849,0.6244509,0.6129734,0.6027679,0.5939938,0.5869534,0.5816157,0.5776319,0.5743821,0.5711391,0.5672608,0.5623735,0.5567481,0.5515297,0.5478758,0.5459392,0.5450093,0.5441473,0.5425246,0.5396773,0.5356408,0.5308392,0.5256127,0.5196428,0.5118401,0.5014622,0.4888230,0.4751665,0.4621845,0.4516094,0.4448564,0.4426605,0.4450734,0.4517170,0.4618165,0.4740606,0.4865569,0.4974727,0.5057965,0.5116422,0.5161321,0.5209356,0.5276684,0.5373171,0.5495868,0.5627959,0.5749880,0.5849127,0.5918220,0.5954967,0.5962714,0.5950062,0.5927853,0.5905330,0.5890605,0.5892116,0.5915373,0.5959101,0.6016050,0.6076328,0.6129895,0.6167381,0.6183148,0.6176908,0.6152928,0.6119265,0.6084115,0.6049776,0.6015942,0.5983162,0.5953421,0.5929470,0.5913809,0.5907901,0.5911898,0.5924876,0.5945735,0.5971540,0.5992522,0.5993675,0.5962493,0.5894525,0.5794143,0.5673452,0.5548728,0.5435811,0.5344016
